477699.66,9090771.36,1.4
477701.95,9090766.83,1.1
477677.44,9091186.95,15.3
477675.38,9091191.55,15.3
477672.01,9091198.41,15.3
477679.69,9091181.72,15.3
477667.76,9091206.43,15.2
477665.33,9091210.86,15
477662.88,9091215.32,15
477660.45,9091219.7,14.9
477680.07,9090950.02,14.2
477681.98,9090943.91,14.1
477669.95,9091093.8,14.1
477659.83,9091104.11,14
477662.05,9091099.56,14
477675.73,9090963.87,14
477678.54,9090955.03,13.9
477664.27,9091095.06,13.9
477679.89,9091058.51,13.9
477677.84,9091095.85,13.8
477673.92,9090969.02,13.8
477658.72,9091013,13.8
477666.49,9091090.13,13.7
477672.22,9090973.86,13.7
477677.47,9091064.01,13.7
477661.02,9091008.5,13.7
477675.07,9091069.16,13.7
477672.15,9091075.68,13.6
477665.74,9090995.48,13.6
477668.38,9091085.19,13.5
477681.99,9091053.47,13.5
477670.57,9090978.69,13.5
477668.76,9090984.58,13.5
477670.18,9091080.39,13.5
477663.04,9091003.8,13.4
477667.13,9090990.6,13.1
477682.27,9091290.54,12.5
477680.21,9091295.31,12.3
477678.19,9091299.98,12.2
477676.05,9091304.61,11.8
477673.73,9091309.32,11.1
477671.39,9091313.89,10.4
477669.29,9091318.44,9.7
477667.45,9091323.12,9.3
477665.52,9091327.87,9
477663.34,9091332.41,8.8
477660.71,9091336.95,8.6
477660.88,9091408.95,7.6
477665.48,9091411.04,7
477682.66,9091395.3,6.7
477670.06,9091413.11,6.7
477680.82,9091399.98,6.6
477678.88,9091404.84,6.5
477673.5,9091416.83,6.5
477675.89,9091411.85,6.4
477671.22,9091421.39,6.3
477678.56,9091416.88,6.1
477672.04,9090715.32,5.9
477675.37,9090709.38,5.9
477667.22,9090835.32,5.6
477669.03,9091426.03,5.6
477680.73,9090807.58,5.3
477662.09,9090843.75,4.9
477666.96,9091430.65,4.8
477679.61,9090812.96,4.7
477669.57,9090719.82,4.7
477669.5,9090830.73,4.5
477664.96,9091435.28,4.5
477662.95,9091440,4.2
477675.85,9090816.99,4
477679.86,9090698.37,4
477671.05,9090811.01,3.9
477677.54,9090704.78,3.9
477659.22,9090847.93,3.8
477673.7,9090821.57,3.7
477660.95,9091444.59,3.6
477671.58,9090826.17,3.6
477666.14,9090809.94,3.6
477659.65,9090739.42,3.3
477667.23,9090724.67,3.3
477664.44,9090730.5,3.3
477658.8,9091449.13,2.9
477662.13,9090735.05,2.9
477681,9090693.43,2.4
477676.32,9090682.25,1.7
477680.93,9090688.36,1.4
477635.45,9091154.95,15.2
477633.27,9091159.53,15.1
477638.45,9091148.4,14.8
477640.48,9091143.82,14.7
477642.63,9091139.17,14.7
477657.85,9091224.48,14.6
477644.82,9091134.56,14.4
477655.4,9091228.99,14.4
477648.39,9091127.1,14.4
477651.7,9091120.28,14.3
477654.09,9091115.47,14.3
477653.12,9091233.58,14.1
477656.77,9091110.14,14
477651,9091238.33,13.8
477651.6,9091088.64,13.8
477657.06,9091090.27,13.7
477649.03,9091243,13.7
477656.02,9091017.64,13.5
477646.99,9091248.05,13.5
477646.73,9091087.1,13.4
477640.31,9091085.06,13.4
477633.8,9091058.61,13.4
477645.04,9091252.87,13.4
477651.98,9091024.89,13.4
477639.85,9091263.76,13.3
477643.01,9091257.51,13.3
477636.94,9091052.72,13.2
477633.03,9090901.96,13.2
477637.41,9091268.23,13.2
477649.15,9091030.34,13.2
477644.48,9091038.67,13.1
477634.78,9091272.85,13
477640.18,9091046.78,12.9
477634.41,9090896.95,11.9
477636,9090892.12,11
477637.95,9090887.38,10.3
477640.1,9090882.79,9.4
477640.46,9091371.14,8.7
477655.96,9091344.25,8.6
477642.21,9090878.14,8.5
477637.78,9091376.61,8.5
477642.69,9091366.57,8.5
477644.94,9091401.66,8.5
477653.17,9091348.46,8.4
477644.99,9091362.1,8.3
477650.21,9091353.04,8.3
477647.53,9091357.49,8.3
477649.78,9091403.85,8.2
477654.35,9091405.93,7.9
477645.89,9090869.42,7.3
477635.38,9091381.04,7.1
477638.44,9091398.73,6.8
477648.11,9090864.8,6.5
477645.12,9090764.55,6.5
477633.61,9090782.06,6.1
477650.58,9090860.42,6
477636.98,9090777.26,5.9
477649.17,9090757.32,5.8
477653.36,9090856.17,5.5
477639.79,9090773.1,5.5
477633.73,9091396.58,5
477656.28,9090852.05,4.5
477651.68,9090752.9,4.3
477634.84,9090804.24,4
477651.49,9090806.95,3.9
477641.72,9090805.23,3.8
477656.41,9090807.9,3.6
477656.84,9090744.15,3.4
477654.25,9090748.51,3.4
477656.57,9091453.63,2.3
477636.19,9090673.61,2.1
477654.3,9091458.14,1.7
477652.11,9091462.69,1.2
477650.12,9091467.37,0.9
477648.41,9091472.19,0.8
477646.75,9091476.95,0.8
477644.92,9091481.67,0.6
477642.81,9091486.68,0.4
477639.08,9090669.52,0.3
477640.58,9091491.31,-0.2
477620.51,9091184.03,15.3
477618.2,9091188.49,15.2
477630.66,9091164.85,15.2
477627.69,9091170.45,15.2
477623.76,9091177.85,15.2
477615.41,9091194,15.1
477613.17,9091198.51,14.9
477609.82,9091205.79,14.7
477630.97,9090911.61,14.7
477629.78,9090916.54,14.6
477628.4,9090921.49,14.5
477624.59,9090932.77,14.4
477626.86,9090926.35,14.4
477623.02,9090937.52,14.3
477614.52,9090955.89,14.3
477618.05,9090948.6,14.2
477621.14,9090942.19,14.2
477611.72,9091098.3,14.2
477610.77,9090963.86,14
477614.24,9091093.8,13.8
477608.61,9090969.18,13.8
477616.77,9091089.38,13.5
477626.55,9091079.7,13.4
477619.95,9091083.78,13.4
477621.39,9091077.37,13.3
477616.78,9091075.33,13.3
477625.5,9091073.41,13.2
477631.64,9091081.95,13.2
477630.05,9091065.06,13.2
477632.17,9091277.26,12.5
477622.67,9091295.39,12.4
477620.23,9091299.83,12.2
477629.67,9091281.73,12.1
477617.77,9091304.27,11.8
477627.37,9091286.21,11.7
477625.03,9091290.88,11.5
477615.35,9091308.69,11.5
477611.27,9091316,11.3
477608.78,9091320.63,10.8
477610.35,9090833.78,9.1
477611.54,9090828.91,7.8
477612.7,9090823.95,6.4
477615.76,9090813,6.1
477613.97,9090818.83,6.1
477632.76,9091385.35,5.9
477629.93,9090787.09,5.9
477614.58,9090801.95,5.8
477618.08,9090807.19,5.7
477626.98,9090791.28,5.4
477619.66,9090802.43,5.2
477629.91,9091389.58,5
477624.69,9090802.97,4.6
477623.7,9090796.47,4.5
477629.07,9091394.52,4.5
477612.52,9091387.61,4.3
477622.07,9091391.53,4.2
477617.31,9091389.55,4.2
477628.19,9090689.56,4.1
477623.82,9090697.71,4
477624.58,9091396.9,3.9
477621.32,9090702.07,3.8
477629.76,9090803.58,3.7
477630.24,9090684.94,3.7
477618.74,9090707.81,3.6
477615.79,9091409.38,3.5
477621.55,9091400.98,3.5
477616.76,9090712.55,3.3
477618.61,9091405.17,3.1
477610.7,9090725.77,3.1
477608.46,9090730.64,3
477614.65,9090717.27,3
477612.91,9091413.78,2.9
477632.52,9090680.46,2.9
477610.07,9091417.97,2.5
477592.88,9090897.47,15.7
477591.13,9090902.34,15.6
477589.21,9090907.44,15.5
477587.42,9090912.16,15.4
477584.79,9090918.76,15.4
477587.22,9091143.33,15.2
477589.7,9091137.93,15.2
477582.97,9090923.49,15.2
477584.96,9091147.92,15
477598.76,9091120.26,15
477593.04,9091130.84,14.9
477596.15,9091124.9,14.8
477601.32,9091115.86,14.7
477607.88,9091210.41,14.6
477607.72,9091104.98,14.6
477605.77,9091215.53,14.5
477605.13,9091109.39,14.4
477603.43,9091221.31,14.3
477594.48,9090892.67,14.3
477603.16,9091069.6,14
477601.52,9091226.04,13.9
477597.33,9090882.66,13.9
477595.96,9090887.78,13.8
477585.83,9091062.9,13.7
477594.17,9091066.15,13.7
477607.81,9091071.44,13.6
477606.48,9090974.45,13.6
477598.7,9090877.84,13.6
477599.51,9091230.82,13.4
477604.1,9090979.93,13.2
477591.23,9091012.59,13.2
477601.04,9090987.33,13.2
477588.97,9091017.54,13.1
477593.17,9091007.95,13
477585.65,9091024.75,12.9
477600.17,9090872.92,12.9
477599.18,9090992.13,12.9
477597.38,9091235.38,12.8
477595.02,9091003.17,12.7
477601.66,9090868.12,12.4
477597.34,9090996.84,12.4
477595.21,9091239.89,12.2
477592.91,9091244.48,11.6
477603.02,9090863.26,11.6
477590.64,9091248.98,11.2
477604.34,9090858.27,10.8
477588.35,9091253.55,10.7
477605.58,9090853.3,10.5
477606.38,9091325.07,10.3
477586.03,9091258.13,10.1
477606.72,9090848.33,10
477583.75,9091262.71,9.6
477607.87,9090843.37,9.5
477603.83,9091329.5,9.4
477601.39,9091333.88,8.7
477598.94,9091338.32,8.1
477589.78,9090766.79,7.6
477596.45,9091342.81,7.6
477595.48,9090758.4,7.5
477592.71,9090762.69,7.4
477585.58,9090772.74,7.4
477593.97,9091347.24,7.2
477590.45,9090799.67,7.1
477600.16,9090749.51,7
477591.41,9091351.59,6.8
477595.44,9090800.13,6.7
477588.85,9091355.95,6.5
477586.27,9091360.39,6.2
477583.86,9091364.91,6
477600.47,9090800.63,6
477607.38,9090801.3,5.9
477602.32,9090744.68,5.4
477588.96,9091378.02,5.2
477593.7,9091380.02,5
477584.68,9090671.62,4.9
477598.5,9091381.97,4.8
477604.35,9090739.99,4.7
477603.24,9091383.85,4.6
477606.39,9090735.25,4.3
477586.57,9090666.97,3.4
477587.47,9090661.97,3.4
477607.2,9091422.07,2.3
477604.16,9091426.32,2.1
477587.02,9090656.89,1.9
477601.27,9091430.71,1.9
477597.47,9091437.08,1.8
477594.8,9091441.92,1.6
477585.24,9091463.22,1.5
477587.71,9091456.33,1.4
477592.45,9091446.45,1.4
477584.74,9090652.12,1.4
477584.19,9091469.25,1.3
477590.15,9091451.06,1.3
477586.3,9091473.86,0.1
477590.58,9091476.49,-1.2
477581.82,9091154.5,15
477580.68,9090930.1,14.9
477579.62,9091159.3,14.8
477575.44,9091167.99,14.8
477579.04,9090934.92,14.6
477573.26,9091172.59,14.6
477570.62,9091177.66,14.5
477566.67,9091184.15,14.3
477561.61,9091193.18,14.3
477564.15,9091188.47,14.3
477576.09,9090942.78,14.2
477569.86,9090956.49,13.9
477572.12,9090951.62,13.9
477559.97,9090977.3,13.8
477560.54,9091079.27,13.8
477567.53,9090961.73,13.7
477563.23,9090971.28,13.7
477562.79,9091074.77,13.6
477566.14,9091067.67,13.6
477565.51,9090966.38,13.6
477580.98,9091061,13.4
477576.29,9091059.13,13.2
477572.6,9091051.94,13.2
477569.06,9091056.18,13.2
477574.86,9091046.8,13.1
477559.96,9091052.4,13.1
477568.17,9091063.02,13.1
477578.09,9091040.49,13
477581.91,9091033.04,12.9
477565.43,9090797.33,10.6
477563.34,9090812.79,10.2
477569.51,9090800.32,10.2
477566.95,9090805.16,9.9
477571.99,9090795.94,9.8
477568.32,9091292.57,9.3
477559.47,9090822.2,9.3
477577.67,9090798.51,9.3
477581.35,9091267.23,9.2
477574.5,9090791.57,9
477561.39,9090817.47,9
477578.9,9091271.75,8.8
477566.22,9091297.22,8.7
477571.64,9091285.54,8.7
477576.5,9091276.25,8.7
477573.96,9091280.99,8.6
477577.03,9090787.15,8.5
477582.74,9090799,8.4
477564.11,9091301.77,8.2
477561.96,9091306.31,7.6
477579.51,9090782.78,7.4
477582.08,9090778.34,7.2
477559.72,9091311.04,7.1
477559.37,9091365.46,6.8
477564.12,9091367.44,6.6
477582.02,9090676.11,6.3
477568.81,9091369.41,6.3
477579.2,9090680.45,6.1
477573.54,9091371.41,6
477581.67,9091369.55,5.8
477578.25,9091373.43,5.7
477582.86,9091375.4,5.5
477559.75,9090720.89,5.4
477577.66,9091379.01,5.4
477575.69,9091383.61,5.2
477573.51,9091388.5,5
477570.64,9091394.42,4.9
477568.07,9091399.25,4.7
477565.5,9091403.62,4.6
477576.3,9090685.03,4.6
477562.97,9091408.09,4.4
477560.64,9091412.63,4.2
477562.07,9090716.31,3.8
477573.85,9090689.4,3
477564.19,9090711.69,2.7
477569.54,9090698.78,2.6
477567.48,9090703.86,2.5
477571.63,9090693.9,2.5
477580.89,9090648.87,0.4
477533.83,9091133.58,15.2
477539.1,9091122.55,14.9
477536.22,9091128.55,14.8
477541.34,9091118,14.7
477543.63,9091113.45,14.5
477547.22,9091106.23,14.5
477549.8,9091100.99,14.4
477534.38,9090876.93,14.4
477557.17,9091201.35,14.2
477553.19,9091093.93,14.1
477554.14,9091207.05,14.1
477536.48,9090872.33,13.9
477551.8,9091211.62,13.8
477557.16,9091085.79,13.8
477549.53,9091216.18,13.6
477547.34,9091220.77,13.5
477544.31,9091226.84,13.3
477538.63,9090867.53,13.3
477555.07,9091050.26,13.2
477557.45,9090981.69,13.2
477541.04,9091014.74,13.1
477544.3,9091008.93,12.9
477553.01,9090990.86,12.9
477549.42,9090998.54,12.9
477535.51,9091041.54,12.9
477541.98,9091231.43,12.9
477548.13,9091047.22,12.9
477555.1,9090986.22,12.8
477540.52,9090862.89,12.8
477537.06,9091023.23,12.7
477541.86,9091044.45,12.7
477539.76,9091236.07,12.7
477546.66,9091004.39,12.7
477544.37,9090853.14,12.4
477542.35,9090857.87,12.3
477546.57,9090848.53,12
477537.62,9091240.73,12
477548.78,9090843.96,11.6
477535.42,9091245.37,11.2
477551.17,9090839.48,10.8
477533.26,9091250.05,10.5
477549.42,9090795.12,10.4
477540.75,9090793.77,10.3
477553.58,9090835.07,10.2
477557.4,9090827.05,10.2
477555.61,9090796.16,10.1
477535.65,9090793.13,9.8
477534.9,9090770.14,8.6
477537.09,9090765.53,7.6
477553.04,9090732.83,7.4
477555.68,9090728.16,7.2
477550.68,9090737.25,6.9
477539.37,9090761.04,6.7
477548.43,9090741.85,6.6
477557.45,9091315.55,6.5
477541.69,9090756.42,6.5
477546.25,9090746.67,6.4
477544.12,9090751.32,6.1
477554.99,9091320.04,6.1
477552.47,9091324.54,5.6
477550.01,9091329.06,5.2
477547.68,9091333.49,4.9
477553.82,9091363.1,4.9
477535.94,9090651.56,4.8
477549.12,9091361,4.6
477545.26,9091338.01,4.6
477540.6,9091356.94,4.5
477540.47,9091347.46,4.5
477542.74,9091342.81,4.5
477538.3,9091352.09,4.5
477535.38,9091358.47,4.4
477533.36,9091353.33,4.4
477549.68,9091433.22,4.3
477552.34,9091428.61,4.3
477557.65,9091418.53,4.2
477554.81,9091424.12,4.2
477547.18,9091437.67,4.1
477532.99,9091363.47,4
477544.98,9091442.43,3.8
477543.26,9091447.22,3.3
477540.61,9090644.76,3.2
477541.63,9091452.01,2.4
477539.75,9091456.69,1.6
477543.04,9090640.12,1.4
477537.84,9091461.34,0.8
477542.85,9090634.83,0.7
477536.02,9091466.02,-0.6
477529.24,9090890.58,15.8
477531.89,9090883.12,15.7
477531.58,9091138.41,15.3
477527.34,9090895.29,15.2
477526.26,9091151.18,15.2
477528.35,9091146.01,15.2
477525.28,9090899.94,15
477523.45,9091158.6,14.9
477523.1,9090904.45,14.7
477521.22,9091164.69,14.7
477520.69,9090909.32,14.5
477518.55,9090913.84,14.4
477519.45,9091169.4,14.3
477516.55,9090918.5,14.2
477514.52,9090923.24,14.1
477517.63,9091174.11,13.9
477512.52,9090927.86,13.8
477508.41,9090937.33,13.6
477510.87,9091071.09,13.6
477510.54,9090932.51,13.5
477515.69,9091179.01,13.5
477514.38,9091065.04,13.4
477513.78,9091183.67,13.2
477516.92,9091060.6,13.1
477510.8,9091029.7,13.1
477515.4,9091031.93,13
477519.66,9091056.07,13
477522.44,9091051.29,13
477525.55,9091036.75,12.9
477508.02,9091025.44,12.9
477511.77,9091188.37,12.9
477532.88,9091031.55,12.8
477524.79,9091046.79,12.7
477530.52,9091035.97,12.7
477521.68,9091031.01,12.6
477527.32,9091041.98,12.6
477509.71,9091192.97,12.5
477529.3,9090782.56,11.1
477531.51,9090777.74,10.5
477527.16,9090787.13,10.1
477531.13,9091254.68,9.9
477528.96,9091259.26,9.3
477530.59,9090792.5,9.1
477526.78,9091263.84,8.7
477525.55,9090791.87,8.7
477520.49,9090791.26,8.5
477524.58,9091268.44,8.3
477522.93,9090797.39,8
477522.31,9091273.1,7.9
477513.77,9090790.36,7.6
477521.23,9090802.11,7.5
477512.78,9090691.52,7.4
477519.94,9091277.71,7.4
477509.13,9090697.55,7.4
477518.9,9090808.56,7.3
477508.7,9090789.72,7.1
477511.11,9090828.03,7.1
477517.5,9091282.11,7
477515.41,9090687.25,7
477516.82,9090813.75,6.9
477512.84,9090823.29,6.6
477514.92,9091286.68,6.6
477514.77,9090818.46,6.3
477512.47,9091291.2,6
477510.17,9091295.79,5.7
477530.42,9090659.88,5.5
477527.73,9090664.71,5.5
477518.1,9090682.79,5.5
477525.28,9090669.56,5.4
477523.05,9090674.05,5
477520.63,9090678.45,4.4
477514.89,9091344.02,4.3
477509.79,9091341.51,4.1
477528.7,9091350.98,4.1
477519.43,9091346.31,4.1
477524.03,9091348.62,4
477530.77,9091368.17,3.7
477528.41,9091373.29,3.4
477526.3,9091377.96,3.1
477524.24,9091382.62,2.8
477522.2,9091387.28,2.5
477520.14,9091391.94,2.3
477518.05,9091396.59,2
477515.3,9091402.31,2
477512.93,9091406.96,1.9
477510.21,9091411.92,1.9
477483.18,9090884.61,15
477485.98,9090878.98,14.7
477484.92,9091120.61,14.6
477487.74,9091115.89,14.3
477490.21,9091111.21,14.1
477494.66,9091102.19,13.9
477500.48,9091090.72,13.9
477504.35,9091083.25,13.8
477497.26,9091096.92,13.8
477507.84,9091076.58,13.8
477488.53,9090874.61,13.7
477501.47,9090953.12,13.1
477491.41,9090870.45,13.1
477505.11,9090944.64,13
477497.5,9090961.62,12.9
477485.71,9090989.25,12.8
477490.74,9090977.16,12.8
477495.44,9090966.25,12.8
477492.76,9090972.43,12.8
477487.51,9090984.46,12.6
477494.61,9090866.47,12.6
477503.32,9091023.6,12.5
477496.32,9091022.65,12.5
477483.52,9090995.8,12.4
477507.49,9091197.97,12.2
477491.6,9091020.56,12.2
477504.51,9091204.82,12.1
477502.54,9091209.47,12.1
477497.5,9090862.35,11.7
477499.42,9091216.63,11.6
477497.32,9091221.3,11.1
477495.18,9091226.04,11
477500.15,9090857.96,10.8
477492.97,9091230.66,10.7
477503.63,9090848.41,10.4
477502.16,9090853.3,10.3
477490.21,9091235.72,10.1
477505.64,9090842.02,9.9
477487.68,9091240.08,9.6
477507.6,9090837.22,9.5
477485.12,9091244.41,8.9
477506.54,9090702.18,7.4
477504.08,9090707.12,7.4
477484.84,9090750.92,7
477502.04,9090711.74,6.9
477503.65,9090788.97,6.2
477500.04,9090716.41,6.1
477487.46,9090744.98,6
477498.65,9090788.11,5.7
477498.04,9090721.04,5.6
477489.48,9090740.18,5.3
477507.87,9091300.34,5.2
477489.91,9090786.13,5.2
477495.99,9090725.62,5
477505.51,9091305.09,4.8
477491.87,9090734.68,4.6
477503.23,9091309.71,4.5
477501,9091314.3,4.2
477485.08,9090784.7,4.1
477498.2,9091319.87,4
477505.2,9091339.28,3.8
477495.65,9091334.82,3.8
477495.79,9091324.55,3.8
477490.24,9091335.92,3.8
477493.46,9091329.17,3.7
477500.64,9091337.13,3.7
477487.71,9091331.23,3.7
477486.87,9091342.52,3.7
477484.47,9091346.95,3.6
477484.91,9090641.13,3.6
477494.69,9091438.43,2.9
477496.84,9091433.79,2.8
477487.98,9090635.68,2.8
477499.29,9091429.43,2.5
477492.71,9091445.71,2.3
477502,9091425.21,2.2
477504.82,9091420.87,2
477507.51,9091416.61,1.9
477494.66,9090623.19,1.5
477499.01,9090618.1,1.5
477490.51,9090631.34,1.3
477492.92,9091450.78,1.2
477496.15,9091454.62,0.1
477503.96,9090617.08,-0.2
477470.3,9091149.33,15.2
477467.91,9091156.79,15
477473.53,9091141.72,15
477477.93,9091132.9,14.9
477481.21,9090889.21,14.8
477466.42,9091161.79,14.7
477480.35,9091128.43,14.7
477479.14,9090893.87,14.7
477476.88,9090898.62,14.5
477471.72,9090910.32,14.5
477464.6,9091167.02,14.4
477473.52,9090905.63,14.4
477462.52,9091171.66,14
477470.13,9090915.28,14
477467.9,9090922.15,13.7
477460.17,9091176.3,13.7
477466.02,9090927.29,13.6
477463.95,9090931.87,13.5
477461.63,9090936.33,13.3
477464.28,9091050.24,13.2
477458.95,9090940.94,13.2
477463.75,9091055.29,13
477459.15,9091070.21,12.9
477461.31,9091065.41,12.8
477464.8,9091045.21,12.7
477462.79,9091060.21,12.7
477473.81,9091013.36,12.4
477465.78,9091040.24,12.3
477482.41,9091016.63,12.3
477472.33,9091021.98,12.3
477477.93,9091009.98,12.2
477468.74,9091031.52,12.2
477468.41,9091011.96,12.2
477481.84,9091000.51,12.2
477479.94,9091005.32,12
477470.49,9091026.72,11.8
477463.22,9091011.34,11.2
477482.53,9091248.83,8.5
477480.08,9091253.19,8.3
477478,9090767.26,8.1
477479.78,9090762.27,7.8
477477.66,9091257.85,7.7
477481.92,9090757.28,7.3
477475.41,9091262.43,7.3
477476.25,9090771.98,7.2
477473.14,9091267.18,7
477470.94,9091271.78,6.9
477464.89,9091283.74,6.9
477468.6,9091276.56,6.7
477462.34,9091288.25,6.6
477460.78,9090688.11,6.5
477458.2,9090692.89,6.4
477459.7,9091292.76,6.3
477463.41,9090683.26,6.1
477474.39,9090776.68,5.5
477465.91,9090678.79,5.5
477458.76,9090813.73,4.7
477459.49,9091318.74,4.6
477468.9,9090673.4,4.4
477464.21,9091320.83,4.3
477477.51,9090782.49,4.2
477468.81,9091322.86,4
477466.09,9090779.57,4
477472.49,9090781.45,3.9
477473.65,9091325.02,3.8
477465.33,9091385.75,3.8
477461.36,9090806.45,3.7
477478.29,9091327.1,3.7
477468.79,9090791.01,3.6
477482.88,9091329.13,3.6
477467.64,9091381.18,3.5
477479.09,9091357.04,3.4
477482.02,9091351.47,3.4
477476.55,9091362.34,3.3
477469.93,9091376.65,3.3
477474.46,9091366.96,3.2
477478.02,9090655.02,3.2
477472.15,9091372.03,3.1
477461.48,9091393.39,3
477471.32,9090668.88,3
477481.38,9090648.08,3
477465.39,9090797.03,2.8
477475.25,9090660.91,2.8
477459.27,9091397.98,2.6
477470.68,9090786.16,2.5
477463.2,9090801.61,2.3
477437.57,9090868.22,15
477433.96,9090875.64,14.9
477438.47,9091103.95,14.2
477434.06,9091112.65,14.2
477441.09,9091098.79,14.1
477443.5,9091094.28,13.9
477440.27,9090861.86,13.8
477457.45,9091181.41,13.5
477446.21,9091089.43,13.5
477447.24,9090960.23,13.4
477455.57,9090946.47,13.3
477448.83,9091085.12,13.3
477455.14,9091185.93,13.1
477450.33,9090955.06,13.1
477442.26,9090857.16,13.1
477451.58,9091080.84,13.1
477456.07,9091074.44,13
477444.66,9090964.78,13
477452.94,9090950.77,13
477442.23,9090969.38,12.9
477435.69,9090981.45,12.8
477433.63,9090986.15,12.8
477452.79,9091190.63,12.5
477457.01,9091008.52,12.5
477447.42,9091005.17,12.4
477442.21,9091003.39,12.4
477439.83,9090973.78,12.4
477444.43,9090852.25,12.3
477452.28,9091006.87,12.2
477436.79,9091001.54,12.1
477446.63,9090846.55,12.1
477450.51,9091195.11,11.6
477448.2,9091199.7,11
477448.33,9090841.7,10.9
477445.97,9091204.25,10.6
477443.74,9091208.74,10.1
477441.3,9091213.29,9.7
477450.22,9090836.95,9.6
477438.89,9091217.76,9.4
477436.54,9091222.29,9.1
477452.77,9090830.51,8.9
477434.21,9091226.85,8.6
477454.45,9090825.55,8.3
477446.13,9090715.42,6.7
477456.09,9090820.72,6.6
477443.23,9090720.99,6.5
477455.69,9090697.59,6.4
477457.21,9091297.11,6
477454.75,9091301.64,5.8
477448.49,9090711,5.8
477440.77,9090726.11,5.6
477452.46,9091306.11,5.6
477450.03,9091311.12,5.5
477453.32,9090702.03,5.3
477447.79,9091315.87,5.3
477445.53,9091320.56,5.1
477453.25,9091316.05,4.9
477438.73,9090730.78,4.4
477450.89,9090706.56,4.4
477450.29,9090775.75,4.3
477443,9091325.5,4.1
477442.24,9091311.58,4.1
477437.47,9091309.69,3.7
477440.44,9091329.96,3.6
477457.15,9091402.61,3.6
477436.88,9090735.48,3.5
477457,9090777.51,3.4
477434.41,9090742.16,3.3
477437.66,9091334.49,3.3
477447.93,9091425.04,3.3
477436.84,9090771.87,3.3
477445.46,9090774.4,3.2
477451.28,9091416.6,3.1
477434.98,9091338.84,3.1
477444.81,9091433.05,2.9
477453.41,9091411.34,2.8
477442.9,9091437.86,2.6
477440.9,9091442.5,2.1
477438.74,9091447.09,1.1
477436.51,9091451.59,-0.2
477413.21,9091156.26,15
477410.69,9091161.81,14.8
477431.53,9090880.14,14.8
477408.6,9091166.46,14.7
477415.29,9091151.66,14.7
477428.01,9090887.25,14.6
477417.5,9090910.93,14.6
477423.77,9090897.67,14.5
477426.04,9090891.95,14.5
477420.91,9090903.91,14.5
477417.35,9091147.04,14.4
477415.29,9090915.49,14.4
477419.46,9091142.48,14.1
477430.38,9091120,14.1
477413.04,9090920.38,14
477408.37,9090929.5,14
477421.83,9091137.51,14
477410.7,9090924.97,13.9
477424.07,9091132.89,13.8
477428.04,9091124.82,13.8
477431.38,9090991.64,12.7
477418.08,9090995.02,12.5
477423.05,9090996.79,12.3
477421.14,9091013.65,12.2
477417.02,9091022.24,12.1
477413.49,9091029.52,12
477427.96,9090998.51,12
477424.24,9091007.05,11.9
477410.41,9090992.3,11.8
477411.4,9091034.14,11.7
477408.73,9091040.44,11.6
477431.96,9091231.42,8
477429.67,9091236.19,7.6
477427.42,9091240.75,7.5
477423.96,9091247.76,7.5
477421.64,9091252.47,7.1
477419.36,9091257.08,6.8
477417.09,9091261.62,6.7
477414.68,9091266.11,6.3
477412.17,9091270.52,5.9
477408.59,9090815.08,5.7
477409.56,9091274.93,5.5
477415.2,9091300.53,4.1
477410.58,9090810.38,4
477419.9,9091302.47,3.9
477424.64,9091304.47,3.7
477429.38,9091306.42,3.6
477417.13,9090767.28,3.6
477431.91,9090750.13,3.1
477413.38,9091372.89,3.1
477416.26,9091368.68,3
477429.39,9090760.13,2.9
477410.52,9091377.1,2.9
477432.32,9091343.28,2.8
477419.16,9091364.33,2.8
477428.06,9090765.8,2.8
477429.75,9091347.58,2.7
477423.34,9091357.93,2.6
477426.33,9091353.21,2.5
477412.42,9090805.64,2.4
477422.09,9090768.41,2.3
477430.6,9090754.97,2.2
477416.31,9090797.31,1.9
477418.88,9090792.5,1.9
477426.4,9090771.5,1.8
477423.23,9090782.54,1.7
477421.32,9090787.56,1.6
477431.58,9090770.5,1.3
477424.94,9090776.8,1.1
477389.25,9090863.47,15.2
477392.99,9090854.37,15.2
477387.19,9090868.08,15
477384.59,9090874.09,14.7
477406.41,9091171.09,14.3
477394.89,9090849.73,14.1
477404.04,9091175.72,14
477387.79,9091088.2,13.8
477390.27,9091083.82,13.6
477405.62,9090935.22,13.5
477396.81,9090845.01,13.3
477402.84,9090941.17,13.3
477392.54,9091079.25,13.2
477401.65,9091180.18,13.2
477397.45,9090952.58,13
477400.61,9090946.09,12.8
477395.45,9091072.89,12.8
477394.96,9090957.05,12.7
477399.21,9091184.68,12.6
477387.31,9090970.87,12.5
477392.49,9090961.48,12.4
477397.4,9091068.22,12.4
477400.58,9091060.04,12.4
477384.72,9090975.32,12.3
477402.49,9091055.39,12.2
477390.09,9090965.91,12.2
477388.41,9090985.66,12.1
477404.48,9091050.73,12
477396.79,9091189.22,12
477400.78,9090989.16,12
477393.23,9090987.02,11.9
477398.59,9090840.29,11.8
477406.42,9091046.09,11.8
477394.49,9091193.72,11.3
477392.24,9091198.37,10.6
477400.3,9090835.5,10.3
477390.09,9091202.9,9.8
477387.89,9091207.52,9.3
477385.62,9091212.11,8.7
477402.07,9090830.82,8.5
477383.36,9091216.72,8.1
477404.13,9090826.18,7.3
477406.04,9090821.42,7
477386.63,9091288.62,5.5
477406.92,9091279.18,5.4
477404.15,9091283.58,5.2
477391.33,9091290.58,5.2
477401.13,9091288.52,5.1
477398.37,9091293.53,5.1
477394.59,9091299.29,5
477386.32,9090758.57,4.8
477403.09,9091295.48,4.7
477391.95,9091303.58,4.6
477391.18,9090760.25,4.5
477398.5,9090762.53,4.5
477383.51,9090739.4,4.4
477407.79,9091297.43,4.4
477389.36,9091307.97,4.4
477386.59,9091312.99,4.3
477407.88,9090765.08,4.2
477384.23,9091317.58,4.1
477385.41,9090734.69,3.8
477407.7,9091381.28,2.6
477404.91,9091385.45,2.5
477387.14,9090729.81,2.3
477402.12,9091389.64,2.2
477399.3,9091393.94,1.9
477396.48,9091398.24,1.8
477393.7,9091402.46,1.5
477390.73,9091406.89,1.1
477385.8,9091414.81,1.1
477388.49,9090724.98,0.7
477385.18,9091441.76,0.3
477382.03,9090878.94,14.7
477378.86,9090883.74,14.6
477375.89,9090887.98,14.6
477378.72,9091102.73,14.2
477382.25,9091096.53,14.2
477373.29,9090892.37,14.2
477369.64,9090899.85,14.1
477374.73,9091111.95,14.1
477364.13,9090910.44,14
477367.35,9090904.61,13.9
477372.95,9091116.77,13.9
477370.85,9091122.55,13.6
477361.65,9090915.06,13.5
477369.02,9091127.5,13.4
477358.53,9090922.62,13.3
477367.05,9091132.18,13.1
477364.4,9091138.05,12.8
477362.21,9091143.03,12.6
477360.17,9091147.63,12.5
477381.06,9090981.69,12.1
477375.98,9090981.88,12.1
477377.94,9090987.45,12
477371.69,9090999.97,11.7
477359.72,9091024.52,11.7
477375.62,9090991.9,11.7
477369.39,9090979.83,11.6
477369.43,9091004.62,11.5
477362.82,9091018.27,11.5
477364.43,9090978.37,11.4
477367.15,9091009.14,11.3
477364.95,9091013.71,11.2
477381.12,9091221.27,7.6
477378.76,9091225.83,7.3
477376.28,9091230.35,6.8
477373.83,9091234.81,6.4
477368.81,9091281.46,6.4
477373.74,9091283.39,6.2
477371.45,9091239.31,6.1
477378.45,9091285.27,6
477369.07,9091243.8,5.9
477366.71,9091248.26,5.8
477364.02,9091279.64,5.7
477364.14,9091252.84,5.3
477361.61,9091257.32,5
477376.1,9090759.93,4.9
477374.17,9090765.91,4.8
477359.16,9091261.77,4.8
477380.46,9090756.41,4.7
477372.37,9090771.37,4.5
477359.25,9091277.8,4.1
477369.72,9090779.24,4.1
477382.07,9091322.24,3.9
477381.6,9090744.48,3.8
477380.14,9091326.91,3.7
477378.25,9091331.57,3.5
477376.27,9091336.22,3.4
477373.29,9091342.86,3.3
477367.73,9090783.92,3.2
477363.04,9090792.83,3.2
477375.73,9090754.76,3.1
477371.05,9091347.41,2.6
477365.52,9090788.43,2.5
477360.6,9090797.48,2.3
477379.54,9090750.24,2.3
477368.82,9091352,2.2
477366.56,9091356.83,1.9
477364.34,9091361.52,1.6
477362.1,9091366.13,1.5
477359.79,9091370.95,1.4
477369.03,9090752.49,1.3
477364.23,9090750.9,1.1
477379.39,9091430.35,1.1
477381.56,9091422.9,1
477380.77,9091438.95,0.6
477337.32,9090841.83,15.4
477335.27,9090846.48,15.2
477333.19,9090851.16,15
477339.62,9090836.96,14.2
477333.33,9091084.46,13.4
477336.67,9091074.97,13.3
477335,9091079.72,13.2
477356.78,9090928.73,13.2
477341.69,9090832.27,13.1
477349.73,9091170.24,13
477340.53,9091065.31,12.8
477355.69,9090933.72,12.8
477346.14,9091177.8,12.7
477351.8,9091165.54,12.6
477356.15,9091156.28,12.5
477345.55,9091054.2,12.5
477353.96,9091160.85,12.4
477343.09,9091059.55,12.4
477338.56,9091070.01,12.4
477354.54,9090938.75,12.4
477351.85,9090949.16,12.3
477353.33,9090943.72,12.1
477348.23,9091048.53,12.1
477343.85,9090827.56,12
477356.07,9091031.51,12
477350.41,9090954.04,11.9
477352.44,9091039.34,11.9
477357.81,9090976.49,11.8
477350.38,9091043.9,11.8
477343.85,9091182.43,11.6
477351.53,9090974.71,11.6
477348.76,9090958.89,11.4
477346.56,9090973.2,11.4
477342.6,9090970.07,11.3
477337.11,9090970.12,11.1
477346.4,9090963.74,11.1
477340.12,9090974.51,10.9
477346.09,9090822.94,10.9
477341.51,9091187.12,10.8
477334.9,9090983.58,10.7
477337.62,9090979.01,10.6
477339.11,9091191.67,10.2
477348.27,9090818.44,10.1
477336.72,9091196.23,9.7
477334.5,9091200.72,9.3
477350.7,9090814.04,7.8
477353.35,9090809.72,5
477336.49,9091269.39,4.6
477356.71,9091266.23,4.5
477344.04,9091272.01,4.5
477344.34,9091289.39,4.4
477354.24,9091270.76,4.3
477347.3,9091283.94,4.2
477348.82,9091273.76,4.2
477349.9,9091279.09,4.2
477341.83,9091294.09,4.1
477354.5,9091275.94,4
477339.43,9091298.63,3.8
477337.03,9091303.03,3.5
477334.45,9091307.46,3.3
477355.99,9090805.37,3.1
477349.99,9090746.46,2.9
477357.36,9090748.76,2.6
477345.15,9090744.9,2.1
477340.31,9090743.29,1.9
477343.72,9090722.94,1.7
477345.35,9091401.95,1.6
477347.65,9091395.99,1.6
477343.3,9091407.5,1.6
477350,9091390.52,1.6
477352.39,9091385.7,1.5
477355.82,9091379.02,1.5
477340.47,9091414.39,1.3
477337.37,9091421.4,1.3
477335.3,9091426.73,1.2
477341.18,9090728.94,1.2
477346.37,9090718.63,1.2
477333.53,9091432.82,1.1
477339.39,9090733.67,0.5
477334.06,9090744.32,0.4
477336.86,9090739.37,0.2
477329.92,9090857.58,15
477327.52,9090862.02,14.8
477323.63,9091109.03,14.3
477321.47,9091113.61,14.2
477324.86,9090866.97,14.2
477320.29,9090875.45,14
477325.73,9091104.18,13.9
477327.68,9091099.29,13.9
477319.27,9091118.11,13.8
477329.56,9091094.53,13.6
477331.52,9091089.4,13.5
477318.01,9090879.95,13.5
477316.97,9091122.71,13.4
477314.59,9091127.17,13.2
477311.76,9090892.59,13.2
477315.74,9090884.49,13.1
477309.51,9090897.18,12.9
477312.09,9091131.98,12.8
477309.84,9091136.48,12.3
477317.07,9091010.6,11.9
477314.62,9091014.97,11.6
477321.83,9091002.79,11.5
477311.91,9091019.23,11.5
477318.74,9090964.28,11.4
477324.6,9090998.49,11.3
477323.65,9090965.88,11.1
477328.55,9090967.42,11.1
477327.49,9090994.27,11
477313.43,9090962.52,11
477308.51,9090960.95,10.7
477330.48,9090990.04,10.7
477332.37,9091205.3,9
477330.2,9091209.88,8.9
477327.61,9091215.3,8.7
477325.31,9091220.06,8.6
477323.05,9091224.88,8.4
477320.97,9091229.44,8.1
477318.91,9091234.2,7.5
477316.15,9091240.37,7.3
477313.99,9091244.95,7.1
477309.77,9090790.59,6.7
477311.82,9091249.46,6.5
477322.33,9090768.24,6.5
477309.59,9091254.04,5.9
477324.68,9090763.74,5.9
477319.8,9090772.62,5.8
477312.06,9090786.05,5.6
477317.05,9090777.11,5.6
477314.45,9090781.52,5.5
477326.46,9091266,5.2
477314.59,9091261.62,5.1
477319.55,9091263.54,5
477331.32,9091267.66,4.9
477331.78,9091311.92,3.1
477326.99,9090759.21,3
477329.05,9091316.34,3
477308.67,9090733.55,2.8
477326.14,9091321.03,2.7
477323.34,9091325.54,2.6
477320.28,9091330.38,2.6
477313.9,9090735.18,2.5
477317.52,9091334.69,2.5
477314.73,9091339.07,2.4
477309.41,9091347.97,2.4
477312.11,9091343.35,2.4
477310.3,9090659.46,2.3
477330.98,9090740.37,1.3
477329.14,9090754.65,1.3
477318.68,9090736.67,1.3
477331.11,9090749.97,0.8
477316.41,9090649.68,0.7
477312.98,9090654.91,0.6
477331.94,9091437.6,0.5
477324.3,9090738.42,0.2
477330.23,9091442.34,-0.5
477293.69,9090823.38,15.2
477291.33,9090828.78,15.1
477296.06,9090818.18,14.8
477288.45,9090834.6,14.7
477284.56,9090840.91,14.3
477298.21,9090813.57,13.3
477285.78,9091065.51,13.2
477288.05,9091060.99,13
477290.34,9091056.47,12.8
477307.28,9090901.73,12.6
477292.84,9091051.53,12.5
477295.31,9091046.77,12.4
477307.46,9091141.21,12.2
477299.72,9091039.06,12.1
477305.21,9091145.81,11.9
477302.45,9091034.78,11.9
477305.03,9090906.45,11.9
477305.2,9091030.51,11.8
477300.25,9090808.98,11.7
477307.84,9091026.05,11.6
477302.97,9091150.41,11.5
477302.26,9090912.6,11.5
477299.22,9090919.05,11.4
477293.16,9090931.19,11.4
477285.79,9090946.73,11.3
477296.9,9090923.63,11.3
477288.54,9090940.69,11.2
477288.6,9090954.61,11
477290.93,9090935.76,11
477300.72,9091155.09,10.9
477300.24,9090958.36,10.8
477293.55,9090956.2,10.7
477302.54,9090804.06,10.6
477298.52,9091159.7,10.5
477296.27,9091164.32,9.8
477294.03,9091168.86,9.4
477304.85,9090799.49,9.3
477291.62,9091173.42,8.9
477289.15,9091177.84,8.4
477307.38,9090795,8.1
477286.63,9091182.23,8
477284.02,9091186.66,7.4
477286.49,9090725.63,7.3
477293.33,9090728.14,7.1
477284.98,9090718.97,6.9
477284.97,9091249.41,6.4
477292.92,9091252.66,6
477286.72,9090714.27,5.7
477297.73,9091254.6,5.7
477302.48,9091256.55,5.5
477298.33,9090729.97,5.5
477298.88,9090680.3,5.3
477307.31,9091258.59,5.3
477304.93,9091263.25,5
477302.97,9090672.86,5
477302.52,9091267.79,4.7
477305.4,9090668.42,4.5
477300.06,9091272.26,4.5
477297.48,9091276.71,4.3
477294.49,9091281.64,4.1
477303.05,9090731.66,4
477288.41,9090709.52,4
477291.51,9091286.43,4
477288.83,9091290.75,3.8
477307.82,9090663.89,3.7
477286.13,9091295.06,3.7
477283.36,9091299.51,3.6
477296.55,9090684.91,3.2
477291.85,9090697.99,2.8
477293.64,9091375.89,2.7
477295.98,9091371.4,2.7
477301.28,9091361.72,2.5
477298.39,9091366.9,2.5
477289.92,9090704.7,2.5
477303.83,9091357.41,2.5
477289.96,9091382.47,2.5
477306.6,9091352.77,2.4
477287.23,9091386.84,2.2
477285.39,9090617.35,1.8
477284.39,9091391.15,1.7
477294.53,9090689.62,1.3
477296.63,9090592.04,1.2
477290.07,9090607.1,1
477304.12,9090575.18,1
477300.16,9090586.44,0.9
477294.12,9090597.74,0.9
477292.09,9090602.47,0.6
477287.57,9090612.71,0.5
477303.27,9090580.23,0
477258.12,9090778.34,14.7
477260.41,9090773.24,14.5
477281.51,9090846.1,14
477262.81,9090768.71,13.9
477279.35,9091079.47,13.3
477265.45,9090764.17,13.3
477275.79,9090856.55,13.3
477278.17,9090851.98,13.2
477281.54,9091074.42,13.2
477277.39,9091084.41,13.2
477272.4,9091097.99,13.1
477275.67,9091089.21,13.1
477269.8,9091103.79,13
477265.84,9091112.04,13
477263.74,9091116.72,12.9
477273.58,9090861.32,12.8
477270.36,9090868.33,12.7
477261.72,9091121.64,12.6
477259.93,9091126.37,12.5
477268.28,9090872.99,12.4
477266.2,9090877.9,12.1
477264.38,9090882.59,11.7
477262.76,9090887.36,11.5
477261.17,9090892.12,11.5
477270.08,9090979.74,11.4
477272.44,9090975.24,11.3
477268,9090759.32,11.2
477259.31,9090896.98,11.2
477267.22,9090985.45,11.2
477259.91,9091000.1,11.1
477278.08,9090963.75,11.1
477262.74,9090994.58,11
477274.77,9090970.78,11
477280.51,9090958.45,10.9
477265,9090990.03,10.9
477282.17,9090952.62,10.9
477267.2,9090947.8,10.9
477270.3,9090754.84,10.8
477272.31,9090949.51,10.8
477261.25,9090945.75,10.5
477277.24,9090951.1,10.4
477272.47,9090750.33,9.7
477274.23,9090745.62,7.9
477258.86,9090715.49,7.8
477267.76,9090718.65,7.6
477279.01,9090733.56,7.4
477273.56,9090720.82,7.4
477260.95,9091229.58,7.3
477275.94,9090740.86,7.1
477281.21,9090728.69,6.9
477281.43,9091190.95,6.9
477281.09,9090723.66,6.8
477263.46,9091224.5,6.7
477258.49,9091234.62,6.6
477261.1,9091239.86,6.5
477278.85,9091195.36,6.4
477276.32,9091199.77,6.1
477273.81,9091204.21,6
477265.76,9091241.72,6
477270.93,9091209.59,6
477268.29,9091214.75,5.9
477266.01,9091219.34,5.7
477270.56,9091243.69,5.7
477280.15,9091247.48,5.7
477275.46,9091245.63,5.6
477276.8,9090640.13,4.4
477274.15,9090648.27,4.1
477270.91,9090658.23,4.1
477278.3,9090635.33,3.8
477258.7,9091347.58,3.6
477259.72,9091342.58,3.5
477261.15,9091337.27,3.5
477280.59,9091303.94,3.5
477265,9091327.86,3.4
477262.84,9091332.55,3.4
477267.85,9091322.99,3.4
477277.51,9091308.76,3.4
477274.6,9091313.14,3.3
477270.71,9091318.72,3.3
477268.75,9090663.9,3.2
477266.86,9090668.68,2.7
477258.9,9090693.66,2.2
477272.53,9090653.41,1.9
477279.86,9090630.57,1.8
477260.61,9090687.87,1.5
477281.46,9091395.38,1.5
477281.94,9090625.07,1.4
477260.71,9090568.44,1.3
477278.68,9091399.63,1.2
477265.09,9090673.5,1.2
477274.42,9091424.36,1.2
477278.31,9091427.51,1.1
477272.67,9091419.11,1
477276.18,9091404.05,1
477262.03,9090682.96,1
477274.04,9091408.95,0.9
477272.75,9091414.03,0.9
477258.24,9090572.86,0.6
477270.25,9090550.18,0.5
477263.83,9090562.61,0.4
477266.33,9090557.61,0.1
477256.4,9090783.28,14.5
477254.83,9090788.11,14.4
477235.12,9090755.29,14.3
477239.47,9090746.74,14.2
477252.94,9090792.74,14.1
477250.83,9090797.37,13.9
477248.72,9090802.07,13.7
477246.67,9090806.82,13.5
477244.72,9090811.46,13.1
477241.51,9090742.13,12.9
477236.32,9091050.11,12.8
477238.54,9091045.39,12.7
477242.85,9090816.23,12.6
477240.63,9091040.8,12.6
477239.46,9090825.31,12.4
477243.16,9091035.09,12.4
477237.3,9090830.22,12.4
477234.94,9090834.8,12.3
477257.85,9091131.69,12.3
477245.25,9091030.41,12.2
477247.31,9091025.76,12
477255.04,9091137.98,12
477249.39,9091021.17,11.9
477251.66,9091016.57,11.6
477254.68,9091010.54,11.6
477252.7,9091142.55,11.5
477257.5,9091004.78,11.4
477243.31,9090737.39,11.1
477256.42,9090903.57,11.1
477234.03,9090949.43,11
477250.31,9091147,10.9
477254.08,9090908.14,10.9
477238.49,9090941.96,10.8
477233.63,9090935.71,10.8
477251.68,9090912.59,10.7
477249.09,9090917.6,10.7
477244.89,9090927.77,10.6
477242.81,9090932.72,10.6
477246.95,9090922.52,10.6
477245.27,9090940.29,10.5
477240.74,9090937.37,10.4
477247.86,9091151.69,10.3
477251.7,9090942.56,10.2
477245.67,9091156.26,9.8
477244.96,9090732.6,9.8
477234.74,9090707.62,9.5
477243.48,9091160.89,9.4
477246.81,9090727.63,9.1
477250.38,9090717.63,9
477241.22,9091165.51,8.9
477248.53,9090722.86,8.8
477242.21,9090709.99,8.8
477247.34,9090711.64,8.7
477252.22,9090712.83,8.3
477239.04,9091170.26,8.3
477237.03,9091174.85,7.6
477234.85,9091179.65,7.3
477254.25,9091243.03,6.7
477251.93,9091247.58,6.2
477254.02,9090708.08,6
477254.03,9091237.11,5.9
477244.43,9091233.63,5.3
477249.18,9091235.3,5.1
477255.76,9090703.32,5.1
477249.63,9091252.03,5.1
477232.98,9090619.06,5
477247.2,9091256.72,4.8
477235.32,9091230.51,4.7
477235.35,9090613.75,4.5
477244.87,9091261.27,4.3
477242.57,9091265.85,4
477237.48,9090609.21,3.8
477255.33,9091359.51,3.8
477252.47,9091365.69,3.7
477257.16,9091354.16,3.7
477240.27,9091270.45,3.6
477250.3,9091370.21,3.5
477233.92,9091283.19,3.5
477237.99,9091275.06,3.5
477257.42,9090698.5,3
477248.28,9091374.91,2.9
477239.76,9090604.59,2.4
477242.52,9091391.69,2.1
477244.1,9091386.77,2.1
477239.41,9091401.16,2
477246.4,9091380.08,2
477236.63,9091408.79,1.9
477234.75,9091413.45,1.7
477248.11,9090589.83,0.8
477255.37,9090577.97,0.8
477252.65,9090582.35,0.7
477242.93,9090598.53,0.5
477245.45,9090594.08,0.4
477232.83,9090759.89,14.2
477230.8,9090764.6,14
477228.73,9090769.24,13.8
477226.22,9090774.55,13.7
477221.26,9090785.08,13.2
477232.85,9091057.22,13
477219.26,9090789.73,12.9
477227.3,9091068.33,12.8
477218.24,9091088.22,12.7
477215.83,9091093.13,12.7
477224.51,9091074.35,12.7
477217.5,9090794.45,12.7
477213.29,9091098.25,12.6
477220.5,9091083.42,12.6
477215.51,9090799.52,12.5
477210.91,9091102.8,12.5
477224.04,9090779.23,12.4
477230.55,9091061.71,12.4
477232.59,9090839.3,12.3
477230.19,9090843.91,12.2
477210.51,9090811.1,12.2
477227.99,9090848.51,12.2
477225.93,9090853.18,12.1
477213.54,9090804.22,12.1
477208.31,9090815.6,11.9
477222.95,9090859.55,11.8
477220.67,9090864.11,11.6
477213.33,9090878.31,11.5
477231.42,9090953.74,11.4
477209.85,9090996.38,11.4
477218.05,9090869.3,11.1
477216.3,9090984.02,11.1
477228.75,9090959.16,11.1
477213.59,9090988.92,11
477226.24,9090964.95,11
477222.7,9090931.44,10.8
477208.33,9090698.18,10.8
477215.74,9090873.75,10.8
477220.72,9090976.23,10.6
477208.42,9090889.24,10.6
477227.46,9090933.28,10.6
477210.35,9090926.44,10.5
477224.11,9090969.56,10.5
477210.9,9090883.38,10.2
477215.01,9090928.39,10.2
477215,9090700.58,9.3
477208.59,9090668.97,9.2
477211.27,9090663.21,9.1
477219.72,9090702.31,8.9
477213.45,9090658.69,8.8
477229.64,9090705.93,8.8
477224.79,9090704.23,8.7
477215.76,9090654.21,8.4
477218.11,9090649.71,7.1
477232.68,9091184.31,6.9
477220.47,9090645.27,6.4
477230.44,9091189.14,6.3
477228.25,9091193.74,5.9
477222.86,9090640.78,5.9
477226.59,9090633.33,5.8
477225.97,9091198.26,5.5
477228.78,9090628.64,5.4
477220.55,9091208.47,5.3
477209.46,9091221.25,5.3
477223.67,9091202.71,5.2
477217.68,9091213.54,5.1
477215.3,9091218.12,5.1
477211.67,9091225.89,5
477216.35,9091223.73,4.7
477230.89,9090623.96,4.6
477209.69,9091230.57,4.4
477221.06,9091225.45,4.3
477230.54,9091228.87,4.2
477225.83,9091227.18,4.1
477230.89,9091288.79,3.5
477228.33,9091293.3,3.4
477225.75,9091297.63,3.3
477223.02,9091301.94,3.1
477220.12,9091306.62,3
477217.29,9091311.36,3
477213.89,9091317.32,2.9
477211.39,9091321.86,2.7
477208.94,9091326.4,2.6
477211.29,9090570.22,1.9
477213.08,9090561.01,1.6
477230.93,9091421.99,1.4
477228.64,9091426.57,0.6
477212.27,9090556,0.3
477209.52,9090551.62,-0.2
477226.4,9091431.12,-0.2
477189.17,9090719.4,13.6
477190.74,9090713.95,13.4
477186.64,9090728.28,13.4
477192.2,9090709.16,12.9
477183.49,9091047.79,12.8
477186.14,9091042.93,12.7
477184.42,9090734.7,12.6
477188.67,9091037.86,12.5
477193.69,9090704.38,12.4
477207.68,9091108.61,12.3
477191.07,9091032.66,12.3
477194.45,9091025.56,12.2
477205.17,9091112.97,12.1
477195.33,9090699.61,12
477202.74,9091117.37,12
477196.75,9091020.96,11.9
477200.46,9091121.96,11.8
477199.18,9091016.59,11.7
477205.9,9090820.18,11.6
477202.78,9091010.28,11.6
477198.16,9091126.78,11.5
477190.15,9090690.67,11.5
477205.23,9091005.87,11.5
477194.85,9090692.68,11.5
477203.58,9090824.62,11.4
477201.39,9090829.34,11.3
477207.69,9091000.91,11.2
477198.44,9090836.51,11.1
477193.03,9090849.46,11.1
477195.88,9091131.4,11
477183.3,9090942.41,11
477185.54,9090688.73,10.9
477199.56,9090694.7,10.9
477190.55,9090854.28,10.9
477196.66,9090841.33,10.8
477199.67,9090687.6,10.7
477185.63,9090937.92,10.6
477197.02,9090914.86,10.6
477187.57,9090860.09,10.6
477206.23,9090894.48,10.6
477200.19,9090908.41,10.5
477201.8,9090682.76,10.4
477185.37,9090864.71,10.3
477187.97,9090933.46,10.3
477193.57,9091135.96,10.3
477204.27,9090899.08,10.3
477188.63,9090916.7,10.2
477195.56,9090919.97,10.2
477202.29,9090903.7,10.1
477191.31,9090926.62,10.1
477204.06,9090923.75,10
477204.01,9090678.26,9.9
477191.23,9091140.46,9.8
477188.81,9091144.92,9.4
477206.32,9090673.73,9.1
477186.42,9091149.34,8.8
477184.14,9091153.82,8.5
477184.51,9090620.93,8.4
477187.53,9090614.96,7.6
477192.02,9090606.29,7.6
477194.31,9090601.72,6.9
477196.5,9090597.18,6
477198.73,9090592.56,5.6
477185.12,9091212.38,5.3
477201.24,9090587.51,5
477189.85,9091214.11,4.8
477204.1,9091219.35,4.7
477184.89,9091282.33,4.6
477187.41,9091277.33,4.6
477194.63,9091215.89,4.6
477199.34,9091217.64,4.5
477191.41,9091269.76,4.5
477203.72,9090583.11,4.3
477193.94,9091265.05,4.2
477196.35,9091260.55,4.1
477207.71,9091235.27,4.1
477205.78,9091239.92,3.9
477203.11,9091246.23,3.9
477199.87,9091253.41,3.7
477193.98,9091354.33,3.2
477196.34,9091349.87,3.1
477199,9091344.87,3.1
477206.46,9090578.81,3.1
477191.49,9091359.08,3.1
477201.48,9091340.26,3
477203.94,9091335.69,2.8
477206.51,9091330.94,2.7
477189.17,9091363.53,1.6
477186.92,9091368.13,1.3
477184.73,9091372.75,0.9
477180.33,9090746.43,13.3
477182.09,9090741.2,13.2
477178.71,9090751.21,13
477176.1,9090757.53,12.8
477172.09,9091073.09,12.7
477180.87,9091053.03,12.6
477177.63,9091060.22,12.6
477173.93,9090762.8,12.6
477169.62,9091078.48,12.5
477175.55,9091065.29,12.4
477171.89,9090767.47,12.4
477167.38,9091083.24,12.2
477169.71,9090772.86,12.2
477165.05,9091087.93,12.1
477166.66,9090779.81,11.9
477162.68,9091092.6,11.9
477164.53,9090784.46,11.7
477160.44,9091097.15,11.7
477162.41,9090789.07,11.4
477158.86,9090796.91,11.4
477158.5,9090994.33,11.1
477169.38,9090970.11,11
477160.58,9090989.36,10.8
477171.54,9090965.55,10.7
477181.91,9090872.29,10.7
477162.66,9090984.48,10.7
477176.22,9090956.2,10.7
477178.97,9090879.5,10.7
477165.48,9090978.4,10.7
477173.74,9090961.03,10.7
477179.45,9090949.87,10.7
477158.64,9090903.35,10.6
477180.88,9090686.81,10.5
477167.63,9090903.35,10.5
477171.17,9090896.47,10.5
477176.87,9090884.28,10.4
477172.14,9090909.35,10.4
477163.37,9090911.34,10.4
477173.42,9090891.93,10.4
477161.29,9090915.92,10.4
477164.2,9090680.62,10.3
477160.68,9090675.05,10.2
477173.03,9090683.7,10.1
477180.76,9090913.17,10.1
477163.04,9090670.33,8.8
477165.42,9090665.78,8.1
477181.92,9091158.43,8.1
477179.64,9091163.15,7.9
477177.42,9091167.82,7.7
477180.26,9090630.33,7.7
477175.19,9091172.42,7.6
477177.42,9090638.73,7.5
477167.8,9090661.3,7.4
477172.87,9091176.91,7.4
477182.17,9090625.66,7.3
477170.5,9091181.43,7.3
477168.07,9091186.25,7.1
477175.72,9090643.77,7
477165.85,9091190.8,6.9
477163.67,9091195.32,6.7
477161.37,9091199.93,6.4
477169.92,9090656.64,6.3
477177.15,9091209.6,5.7
477172.43,9090651.16,5.7
477162.94,9091204.72,5.7
477170.32,9091207.24,5.5
477182.66,9091286.91,4.5
477180.47,9091291.52,4.2
477178.36,9091296.1,4
477176.17,9091300.88,3.8
477172.11,9091309.09,3.7
477169.81,9091313.66,3
477167.54,9091318.21,2.7
477164.64,9091324.35,2.6
477162.62,9091329.06,2.3
477160.76,9091333.84,2
477158.98,9090555.26,1.9
477159,9091338.62,1.8
477162.04,9090550.26,1.2
477174.44,9091396.21,1
477171.3,9091403.98,1
477170.1,9091409.25,1
477176.48,9091391.58,1
477178.52,9091386.7,0.9
477180.54,9091382.02,0.8
477182.59,9091377.36,0.8
477170.52,9091414.54,0.7
477174.63,9091420.25,-1.2
477137.48,9090671.16,14.5
477151.71,9090698.89,13.9
477149.93,9090703.68,13.8
477148.05,9090708.39,13.6
477142.48,9090673.16,13.5
477146.06,9090713.07,13.4
477143.97,9090717.76,13.2
477141.84,9090722.49,13.1
477153.6,9090692.91,13.1
477139.55,9090727.7,12.9
477136.02,9090734.89,12.8
477133.28,9090740.42,12.6
477134.26,9091043.21,12.5
477138.16,9091034.88,12.5
477147.24,9090674.97,12.3
477141.43,9091027.98,12.3
477155.38,9090688.04,12.3
477143.67,9091023.49,12.2
477146.02,9091018.97,12.1
477149.11,9091013.25,11.9
477152.03,9091007.77,11.6
477156.43,9090999.03,11.5
477151.96,9090676.66,11.4
477157.79,9091102.68,11.3
477155.33,9090805.22,11.2
477135.6,9090967.31,11.2
477145.05,9090830.85,11.2
477142.69,9090835.52,11.2
477138.64,9090961.73,11.2
477140.26,9090840.21,11.1
477152.94,9090810.8,11.1
477137.35,9090845.49,11.1
477133.1,9090972.22,11.1
477147.72,9090824.24,11.1
477157.29,9090683.32,11.1
477141.4,9090956.9,11.1
477140.43,9090895.98,11
477143.99,9090952.45,11
477156.87,9090678.29,11
477153.86,9090901.36,11
477135.04,9090850,11
477150.63,9090816.4,10.9
477146.29,9090947.98,10.9
477145.57,9090897.99,10.9
477148.45,9090943.29,10.8
477155.69,9091107.24,10.8
477150.59,9090938.53,10.8
477135.6,9090894.22,10.7
477154.87,9090929.21,10.6
477152.67,9091114.3,10.6
477152.69,9090933.83,10.5
477157.3,9090924.28,10.5
477150.69,9091118.99,10.2
477148.66,9091123.8,9.7
477146.56,9091128.43,9
477144.35,9091132.95,8.5
477141.98,9091137.41,8.2
477139.5,9091141.96,8
477137.11,9091146.45,7.9
477133.47,9091153.28,7.7
477136.13,9091195.52,5.8
477155.71,9091202.25,5.7
477150.87,9091200.55,5.6
477141.02,9091197.14,5.4
477155.43,9091211.13,5.3
477146.05,9091198.85,5.2
477153.02,9091215.65,5
477150.57,9091220.14,4.7
477148.22,9091224.62,4.5
477145.99,9091229.13,4.2
477143.72,9091233.63,4
477134.28,9090603.94,3.7
477141.49,9091238.11,3.7
477139.34,9091242.7,3.4
477142.89,9090582.71,3.2
477138.31,9090591.74,3.2
477137.26,9091247.27,3.1
477135.05,9091252.01,3
477135.51,9090598.86,2.9
477154.89,9090562.6,2.8
477140.57,9090587.18,2.6
477147.43,9090574.98,2.3
477150.4,9090570.26,2.2
477157.35,9091343.43,1.8
477146.43,9091368.51,1.5
477153.63,9091353.17,1.5
477149,9091363.11,1.4
477144.23,9091373.22,1.3
477155.63,9091348.26,1.3
477151.5,9091357.9,1.3
477142.09,9091377.78,1
477137.78,9091387.15,0.8
477133.64,9091398.48,0.8
477139.89,9091382.52,0.8
477135.13,9091393.66,0.7
477130.57,9090668.32,14
477111.67,9090660.56,13.8
477117.43,9090662.82,13.5
477125.23,9090666.07,13.3
477130.37,9090746.9,12.7
477131.19,9091049.28,12.6
477127.16,9090753.5,12.5
477128.84,9091053.83,12.4
477124.94,9090758.32,12.3
477110.25,9091025.28,12.3
477122.84,9091066.14,12.3
477112.52,9091020.72,12.2
477122.01,9090765.26,12.2
477115.35,9091014.57,12.2
477125.49,9091060.53,12.1
477120.3,9091071.52,12.1
477120.09,9090770.16,12
477118.68,9091006.69,12
477116.94,9091078,11.9
477118.27,9090774.82,11.8
477120.55,9091001.94,11.8
477115,9090781.77,11.6
477112.38,9090786.63,11.5
477128.48,9090981.44,11.5
477124.07,9090992.26,11.5
477114.43,9091082.58,11.5
477122.4,9090997.02,11.4
477125.82,9090987.55,11.4
477130.72,9090976.9,11.4
477110.66,9090652.58,11.2
477108.72,9090793.54,11.2
477112.05,9091087.1,11.1
477123.42,9090878.64,11.1
477132.8,9090854.49,11
477130.37,9090892.36,11
477125.61,9090873.51,11
477129.01,9090863.91,10.9
477130.78,9090859.13,10.8
477109.62,9091091.94,10.8
477127.35,9090868.79,10.8
477123.24,9090889.83,10.6
477112.81,9090900.77,10.6
477120.93,9090883.68,10.4
477112.8,9090647.86,10.3
477108.94,9090909.58,10.2
477115.75,9090894.45,10
477112.35,9090885.64,9.9
477118.42,9090888.01,9.9
477114.7,9090643.2,8.9
477131.02,9091157.75,7.4
477122.55,9091174.38,7.3
477128.61,9091162.2,7.3
477120.31,9091178.88,7.2
477126.17,9091166.94,7.2
477118,9091183.84,6.9
477112.41,9091187.81,6.5
477117.6,9091189.46,6.4
477113.82,9091192.74,6.1
477131.09,9091193.86,6.1
477125.7,9091192.1,6
477116.64,9090638.49,5.6
477111.67,9091197.3,5.5
