439054.59,9063161.98,6.6
439055.18,9063143.81,6.6
439062.44,9063147.77,6.5
439073.74,9063285.4,2.9
439070.64,9063289.7,1.8
439066.54,9063292.68,0.6
439029.25,9063198.98,6.8
439033.45,9063130.63,6.7
439032.29,9063194.8,6.6
439039.09,9063184.76,6.6
439035.16,9063190.57,6.6
439046.1,9063138.36,6.5
439029.06,9063128.04,6.5
439038.62,9063133.76,6.5
439043.39,9063178.83,6.5
439049.98,9063168.97,6.5
439047.19,9063173.26,6.2
439004.94,9063113.9,7.5
439017.16,9063121.04,7.2
439012.21,9063118.19,7
439024.51,9063204.93,6.8
439021.61,9063123.62,6.8
439021.19,9063208.72,6.6
439017.41,9063212.85,6.3
439013.95,9063216.86,6.1
439007.87,9063223.32,5.7
438988.85,9063104.08,8.2
438983.7,9063101.11,7.7
438978.95,9063098.29,7.7
438993.23,9063106.67,7.6
439000.66,9063111.31,7.2
439000.24,9063230.71,5.8
438996.4,9063234.03,5.4
438992.6,9063237.42,4.8
438989,9063240.97,4
438985.89,9063244.89,3.1
438984.22,9063249.73,2.2
438986.69,9063254.15,1.5
438954.36,9063085.59,7.7
438962.41,9063089.12,7.6
438967.05,9063091.43,7.4
438974.53,9063095.68,7.3
438933.4,9063085.61,7.9
438942.08,9063083.33,7.7
438947.12,9063083.53,7.6
445747.36,9066523.17,6.3
445750.75,9066519.42,5
445754.98,9066516.7,1.6
445759.94,9066517.55,0.1
445723.21,9066549.98,10.1
445726.57,9066546.24,9.3
445729.94,9066542.41,8.6
445733.54,9066538.57,6.8
445740.45,9066531.04,6.7
445743.83,9066527.21,6.6
445736.99,9066534.89,5.7
445697.52,9066632.62,10
445706.23,9066640.42,9.7
445701.67,9066636.17,9.7
445716.69,9066557.16,9.6
445709.88,9066644.05,9.6
445713.21,9066560.95,9.5
445709.29,9066565.05,9.3
445702.7,9066574.13,9.2
445699.19,9066580.15,9.1
445705.91,9066569.04,9
445701.6,9066500.64,5.7
445706.79,9066492.81,5.1
445699.05,9066505.14,4.8
445708.61,9066486.22,3.9
445705.73,9066481.51,3.7
445678.26,9066603.21,11.2
445677.58,9066614.01,11.2
445681.83,9066617.09,10.9
445681.92,9066599.62,10.8
445685.83,9066620.09,10.8
445685.5,9066595.89,10.5
445690.22,9066623.79,10.5
445694.83,9066628.25,10.3
445689.34,9066592.37,10.2
445692.94,9066588.75,9.6
445696.09,9066584.84,9.3
445673.48,9066540.12,9.3
445676.9,9066536.35,8.9
445680.39,9066532.39,8.9
445683.64,9066528.4,8.6
445686.57,9066524.34,7.9
445689.6,9066520.12,7.1
445692.52,9066516.03,6.7
445673.98,9066462.63,5.8
445696.31,9066509.97,5.6
445677.22,9066456.64,5.4
445677.94,9066451.36,5.2
445676.38,9066446.23,2.8
445666.83,9066616.4,11.8
445665.92,9066605.11,11.6
445663.97,9066620.58,11.5
445659.56,9066600.34,11.5
445671.66,9066609.54,11.5
445659.18,9066627.47,11.4
445655.18,9066597.19,11.4
445656.2,9066631.58,11.3
445650.95,9066594.19,11.1
445649.66,9066640.67,11.1
445653.21,9066635.7,11.1
445648.07,9066565.45,10.2
445666.08,9066548.16,10
445652.3,9066561.34,9.9
445660.12,9066554.15,9.8
445656.27,9066557.69,9.7
445669.91,9066544.01,9.6
445651.46,9066483.32,8.2
445654.84,9066479.56,7.4
445658.25,9066475.79,7.1
445666.04,9066470.37,6.8
445670.04,9066467.23,6.2
445622.81,9066675.84,12.2
445626.14,9066672.11,11.9
445629.42,9066668.23,11.6
445632.58,9066664.19,11.5
445635.62,9066660.13,11.2
445638.7,9066655.91,11.2
445624.88,9066590.06,11.1
445629.91,9066584.17,11.1
445642.08,9066651.22,11.1
445644.63,9066589.68,11.1
445645.1,9066647,11
445639.58,9066585.98,10.9
445629.46,9066578.31,10.9
445634.68,9066582.21,10.8
445636.33,9066577.3,10.8
445639.9,9066573.66,10.5
445644.3,9066569.23,10.4
445623.6,9066513.76,10.2
445626.57,9066509.69,9.9
445629.97,9066505.7,9.5
445633.57,9066501.95,9.1
445637.18,9066498.47,8.9
445641.27,9066494.45,8.8
445644.85,9066490.59,8.7
445621.94,9066435.51,4.8
445625.48,9066431.67,4.4
445629.99,9066427.11,3.7
445633.61,9066423.57,3.4
445637.12,9066419.85,2.3
445640.67,9066416.22,1.1
445645.46,9066414.7,0.3
445602.62,9066695.89,12.9
445606.38,9066692.28,12.7
445610.55,9066688.26,12.6
445614.14,9066684.75,12.4
445617.86,9066681.09,12.2
445601.49,9066618.31,12.2
445600.08,9066557.94,12.2
445599.9,9066544.62,11.8
445604.77,9066614.46,11.8
445603.24,9066540.71,11.7
445604.51,9066561.06,11.7
445608.15,9066610.6,11.7
445611.72,9066606.43,11.6
445609,9066564.17,11.5
445608.59,9066534.1,11.4
445615.02,9066602.52,11.4
445613.27,9066567.12,11.3
445618.22,9066598.56,11.2
445611.96,9066530.23,11.1
445617.48,9066570.04,11.1
445621.45,9066594.41,11
445621.61,9066572.88,11
445615.26,9066526.46,10.8
445599.29,9066464.89,10.8
445618.18,9066522.38,10.6
445620.84,9066518.04,10.5
445602.13,9066460.68,10.4
445605.11,9066456.31,9.9
445608.14,9066451.97,9.5
445611.17,9066447.97,9.2
445615.15,9066443.05,8.3
445618.47,9066439.22,6.1
445599.58,9066388.81,2.1
445605.41,9066388.07,1.3
445572.09,9066577.8,13.9
445575.45,9066573.71,13.8
445578.81,9066569.28,13.8
445573.84,9066537.66,13.7
445586.45,9066638.57,13.7
445582.97,9066643.72,13.5
445579.19,9066649.31,13.5
445582.16,9066564.92,13.5
445576.04,9066653.6,13.4
445572.89,9066657.54,13.4
445586.12,9066560.21,13.4
445577.51,9066541.08,13.4
445589.39,9066634.33,13.4
445592.38,9066630.15,13.2
445582.67,9066717.36,13.2
445592.15,9066706.66,13.2
445586.85,9066712.53,13.2
445581.29,9066544.43,13.2
445589.81,9066556.01,13.2
445596.19,9066702.33,13.1
445578.53,9066722.25,13.1
445573.34,9066728.31,13
445585.52,9066547.9,13
445595.43,9066625.93,12.9
445575.2,9066492.13,12.7
445589.76,9066550.92,12.7
445578.75,9066488.52,12.6
445582.25,9066484.89,12.4
445594.85,9066550.31,12.3
445585.92,9066481.12,11.8
445589.45,9066477.4,11.4
445592.87,9066473.47,11.2
445595.98,9066469.44,11
445576.3,9066418.86,8
445579.25,9066414.67,7.4
445582.16,9066410.46,7
445584.94,9066406.28,6.6
445587.77,9066402.1,5.7
445590.85,9066398.06,3.9
445594.18,9066394.27,3.2
445555.69,9066513.2,14.9
445547.85,9066516.16,14.8
445561.34,9066526.72,14.7
445556.27,9066522.75,14.7
445550.75,9066604.4,14.5
445565.46,9066530.08,14.5
445558.82,9066509.14,14.4
445549.7,9066522.43,14.4
445564.53,9066586.28,14.2
445552.62,9066517.7,14.2
445556.05,9066597.27,14.1
445559.94,9066592.12,14.1
445569.31,9066533.46,14.1
445562.39,9066505,14.1
445567.92,9066582.3,14.1
445550.19,9066684.55,14
445556.26,9066677.67,14
445559.69,9066673.45,13.8
445565.92,9066501.26,13.7
445564.11,9066667.96,13.6
445567.33,9066664.09,13.4
445569.51,9066497.67,13.2
445569.14,9066733,12.8
445565.73,9066736.83,12.6
445549.29,9066754.51,12.4
445561.89,9066741.12,12.4
445554.89,9066748.49,12.3
445558.36,9066744.86,12.2
445550.05,9066449.82,11.4
445553.32,9066445.81,10.9
445556.75,9066441.74,10.4
445560.09,9066437.9,10
445563.54,9066434,9.6
445566.99,9066430.15,9.1
445570.33,9066426.38,8.7
445551.55,9066366.28,6.3
445554.59,9066362.26,5.6
445557.58,9066358.25,4.8
445560.55,9066354.15,3.9
445563.19,9066349.67,3.1
445564.59,9066344.81,1.7
445564.12,9066339.82,0.7
445521.9,9066494.71,17.3
445525.82,9066497.9,17.1
445530.91,9066502.01,16.9
445530.52,9066549.66,16.7
445534.84,9066543.92,16.7
445536.03,9066506.12,16.7
445538.39,9066538.92,16.6
445527.15,9066553.94,16.6
445523.5,9066558.55,16.6
445539.94,9066509.4,16.4
445542.87,9066532.63,16.3
445525.15,9066480.78,16.2
445543.81,9066512.68,16
445545.79,9066528.41,15.9
445528.31,9066476.5,15.7
445531.74,9066471.84,15.4
445535.34,9066467.07,14.8
445545.89,9066609.59,14.7
445542.14,9066613.09,14.5
445538.25,9066616.4,14.3
445544.77,9066689.77,14.1
445538.71,9066695.34,14
445534.57,9066619.81,13.9
445538.7,9066463.01,13.9
445535.13,9066698.93,13.9
445531.71,9066702.65,13.7
445531.17,9066623.54,13.7
445528.39,9066706.6,13.4
445527.65,9066627.39,13.2
445542,9066459.2,13.1
445525.09,9066710.74,13
445523.72,9066632.26,12.8
445521.93,9066714.75,12.4
445545.32,9066455.41,12.4
445544.54,9066760.06,12.3
445540.93,9066764.53,12.1
445537.72,9066768.55,12
445534.42,9066772.71,11.7
445530.85,9066777.25,11.3
445527.77,9066781.21,11.1
445533.76,9066872.8,10.8
445529.39,9066869.67,10.8
445524.71,9066865.98,10.7
445524.69,9066785.2,10.6
445537.94,9066875.55,10.6
445525.53,9066397.59,9.5
445528.88,9066393.78,9.1
445532.31,9066389.94,8.8
445538.88,9066382.3,8.7
445535.63,9066386.13,8.6
445542.4,9066378.04,8.5
445545.66,9066373.97,8
445500.67,9066476.38,18.2
445504.49,9066479.7,18.1
445510.7,9066498.7,17.9
445508.43,9066483.03,17.9
445504.17,9066505.15,17.9
445498.75,9066510.94,17.8
445514.2,9066494.93,17.8
445512.5,9066486.49,17.7
445516.4,9066489.91,17.5
445520.55,9066487.1,17
445518.25,9066565.31,16.5
445514.75,9066569.67,16.1
445511.38,9066573.75,15.6
445508.09,9066577.66,15.4
445504.73,9066581.73,14.9
445501.31,9066585.84,14.6
445499.5,9066426.66,14.3
445497.99,9066589.61,14.3
445502.69,9066422.65,13.6
445506.06,9066418.71,12.9
445520.51,9066636.1,12.4
445509.54,9066414.9,12.2
445517.38,9066640.02,11.9
445518.7,9066718.75,11.6
445513.04,9066411.18,11.5
445514.03,9066644.35,11.5
445511.06,9066648.69,11.2
445515.37,9066722.52,11.2
445516.9,9066859.41,11.1
445513.08,9066856.15,11.1
445508.24,9066652.86,10.9
445520.72,9066862.65,10.9
445511.21,9066726.94,10.8
445516.58,9066407.5,10.7
445509.27,9066852.91,10.7
445505.43,9066849.68,10.6
445503.86,9066813.83,10.5
445521.23,9066789.93,10.5
445504.18,9066658.65,10.5
445500.7,9066817.75,10.5
445506.92,9066809.71,10.5
445497.26,9066821.66,10.4
445507.72,9066730.92,10.4
445512.59,9066801.92,10.4
445516.59,9066796.42,10.3
445520.04,9066403.74,10.3
445500.73,9066663.7,10.3
445501.51,9066846.4,10.2
445497.81,9066667.85,10.2
445504.5,9066735.01,10.1
445501.24,9066739,10.1
445497.09,9066743.62,9.9
445497.55,9066843.06,9.9
445483.22,9066450.55,17.8
445487.99,9066465.17,17.8
445482.82,9066460.63,17.7
445494.88,9066471.29,17.7
445487.35,9066445.31,17.7
445477.44,9066455.68,17.6
445495.48,9066514.78,17.5
445473.58,9066461.97,17.3
445490.4,9066440.94,17.3
445472.3,9066451.01,17.2
445492.28,9066518.71,17.1
445489.07,9066522.69,16.5
445493.03,9066436.51,16.2
445485.87,9066526.75,16
445495.89,9066431.77,15.1
445482.46,9066530.94,15
445479.2,9066534.76,14.3
445493.79,9066594.22,14.2
445490.06,9066598.3,13.6
445475.51,9066538.68,13.6
445486.64,9066602.09,13.1
445483.03,9066605.99,12.9
445479.46,9066609.66,12.4
445475.84,9066613.29,12.1
445472.28,9066616.92,11.9
445475.03,9066823.59,10.3
445484.58,9066831.71,10.3
445474.46,9066849.83,10.3
445493.96,9066825.51,10.3
445478.99,9066826.9,10.3
445478.91,9066844.33,10.2
445489.53,9066830.94,10.2
445478.33,9066689.2,10.2
445477.17,9066766.69,10.2
445484.51,9066837.19,10.1
445473.42,9066771.34,10.1
445483.85,9066684.45,10
445480.55,9066762.73,10
445494.01,9066673.12,9.9
445489.06,9066752.81,9.9
445489.44,9066835.99,9.9
445484.73,9066757.91,9.9
445487.58,9066680.86,9.9
445493.35,9066747.82,9.8
445490.93,9066677.11,9.8
445493.63,9066839.67,9.8
445475.41,9066302.62,5.9
445478.13,9066298.25,4.8
445480.84,9066293.97,4.5
445483.64,9066289.69,4.2
445486.64,9066285.5,4
445489.66,9066281.42,3
445492.58,9066277.2,1.9
445494.7,9066272.43,0.8
445484.84,9066258.16,0.5
445495.06,9066267.38,0.2
445489.67,9066259.6,0
445493.72,9066262.56,-0.3
445470.27,9066465.76,17.2
445467.36,9066446.92,17
445463.41,9066443.65,16.9
445454.24,9066413.57,16.8
445459.35,9066440.06,16.8
445466.62,9066469.81,16.7
445455.44,9066436.49,16.7
445457.88,9066408.77,16.6
445450.86,9066417.33,16.5
445451.62,9066433.09,16.4
445463.37,9066400.8,16
445462.94,9066474.03,15.9
445447.7,9066429.82,15.9
445447.45,9066421.1,15.9
445459.6,9066477.91,15.1
445456.03,9066481.95,14.4
445452.65,9066485.78,13.7
445471.7,9066542.37,13.1
445449.27,9066489.68,13.1
445468.1,9066546.01,12.7
445464.47,9066550.32,12.3
445461.64,9066554.46,11.8
445468.79,9066620.64,11.6
445459.09,9066558.87,11.5
445451.06,9066643.41,11.3
445464.73,9066625.16,11.3
445460.86,9066629.46,11.3
445454.46,9066637.82,11.3
445456.84,9066563.43,11.2
445457.66,9066633.38,11.2
445454.55,9066568.1,10.8
445451.11,9066721.17,10.8
445460.57,9066708.74,10.7
445463.63,9066704.71,10.7
445454.51,9066716.54,10.6
445448.1,9066725.29,10.6
445452.12,9066572.63,10.6
445467.8,9066699.57,10.6
445449.07,9066577.98,10.5
445471.36,9066695.56,10.5
445464.66,9066861.1,10.4
445455.2,9066871.98,10.3
445466.95,9066816.82,10.2
445468.02,9066857.35,10.2
445462.77,9066785.81,10.2
445459.91,9066866.48,10.2
445451.71,9066876.11,10.2
445469.88,9066776.08,10.2
445466.57,9066780.71,10.1
445459.64,9066789.82,10.1
445456.92,9066808.56,10.1
445449.11,9066336.68,10
445452.8,9066797.77,10
445456.25,9066793.9,10
445463,9066813.53,10
445448.38,9066880.29,9.9
445451.34,9066803.97,9.9
445452.53,9066333,9.6
445455.95,9066329.22,9.2
445459.17,9066325.32,8.8
445462.32,9066321.35,8.2
445465.4,9066317.36,7.7
445468.42,9066313.27,7.3
445471.29,9066309.09,7
445447.61,9066260.41,4.8
445452.14,9066256.07,4.5
445456.03,9066252.71,3.8
445459.94,9066249.54,3.2
445463.94,9066246.36,2.3
445467.43,9066242.74,1.3
445467.44,9066237.74,0.4
445444.19,9066425.01,15.6
445439.21,9066423.99,15.1
445439.96,9066430.39,14.9
445434.64,9066421.03,14.6
445436.67,9066434.42,14.4
445428.59,9066416.67,14.2
445433.25,9066438.24,13.9
445424.39,9066413.52,13.8
445429.69,9066441.95,13.5
445424.54,9066364.97,13.5
445426.26,9066445.67,13
445422.81,9066449.38,12.9
445427.49,9066360.78,12.8
445445.63,9066493.98,12.5
445431.23,9066356.03,12.5
445442.33,9066498.05,12.4
445434.61,9066352.32,12.2
445439.19,9066502,11.8
445433.64,9066509.03,11.6
445438.08,9066348.67,11.6
445424.85,9066518.67,11.4
445428.85,9066514.47,11.4
445438.75,9066663.51,11.3
445446.66,9066650.9,11.3
445442.59,9066657.59,11.3
445434.9,9066668.66,11.1
445422.38,9066285.83,11
445441.53,9066344.99,10.9
445425.84,9066281.92,10.8
445438.75,9066738.14,10.8
445431.5,9066672.63,10.6
445442.15,9066733.51,10.6
445433.94,9066744.56,10.5
445432.18,9066276.02,10.4
445445,9066341.22,10.4
445428.84,9066751.03,10.4
445433.53,9066596.3,10.4
445424.59,9066756.19,10.4
445429.21,9066600.86,10.4
445438.98,9066591,10.3
445427.87,9066676.63,10.3
445423.75,9066606.92,10.3
445446.18,9066582.37,10.3
445442.44,9066587.16,10.2
445424.13,9066680.48,10.2
445427.18,9066785.12,10
445422.17,9066831.07,9.9
445442.84,9066797.27,9.9
445446.36,9066804.83,9.9
445423.16,9066782.03,9.8
445440.61,9066811.12,9.8
445434.83,9066790.96,9.8
445445.07,9066884.73,9.7
445436.86,9066815.22,9.7
445438.83,9066794.11,9.7
445425.7,9066827.19,9.6
445433.25,9066819.19,9.6
445442.11,9066888.83,9.5
445429.79,9066822.89,9.5
445439,9066893.25,9.2
445435.93,9066272.39,9.2
445436.1,9066897.41,9
445433.21,9066901.55,8.9
445424.96,9066912.57,8.8
445429.92,9066906.16,8.8
445439.54,9066268.7,6.2
445444.04,9066264.02,5.4
445423.96,9066232.37,4.8
445426.93,9066228.31,4.2
445429.52,9066223.67,3.4
445431.41,9066218.97,2.5
445432.16,9066213.85,0.7
445418.31,9066374.4,13.8
445421.19,9066370.04,13.7
445414.67,9066379.69,13.7
445417.84,9066408.9,13.6
445402.69,9066398.05,13.6
445411.83,9066383.85,13.6
445412,9066405.17,13.5
445404.28,9066392.55,13.5
445407.36,9066401.77,13.5
445408,9066388.72,13.4
445418.98,9066453.55,12.9
445414.38,9066458.74,12.7
445410.96,9066462.52,12.5
445407.44,9066466.24,12.3
445402.22,9066471.67,11.9
445399.13,9066548.42,11.8
445398.68,9066475.3,11.7
445403.57,9066542.87,11.4
445412.22,9066533.5,11.4
445408.53,9066537.58,11.3
445419.54,9066524.75,11.3
445415.51,9066529.64,11.2
445412.53,9066298.74,11.1
445406.98,9066305.44,11
445415.69,9066294.56,11
445400.41,9066313.49,10.9
445403.59,9066309.45,10.9
445418.93,9066290.25,10.8
445399.86,9066633.7,10.4
445415.18,9066775.77,10.3
445409.35,9066623.05,10.3
445404.16,9066628.88,10.3
445413.02,9066618.85,10.3
445417.47,9066613.86,10.2
445399.14,9066763.78,10.2
445419.76,9066761.37,10.2
445414.27,9066767.1,10.1
445405.92,9066768.84,10.1
445400.69,9066781.3,10
445404.85,9066777.46,10
445419.18,9066778.88,10
445420.55,9066684.01,10
445416.81,9066687.52,9.9
445408.68,9066773.41,9.9
445418.64,9066835.16,9.9
445409.72,9066693.89,9.8
445401.46,9066701.81,9.8
445405.47,9066697.88,9.8
445414.79,9066925.48,9.5
445398.6,9066857.75,9.4
445415.4,9066839,9.4
445412.05,9066842.91,9.2
445402.13,9066853.94,9.1
445405.98,9066849.77,9.1
445411.16,9066929.56,9
445418.74,9066920.6,9
445399.68,9066940.26,8.9
445421.84,9066916.59,8.8
445403.59,9066936.77,8.7
445407.49,9066933.18,8.6
445401.43,9066255.6,8.6
445404.92,9066251.93,8
445408.53,9066248.24,7.8
445412.23,9066244.63,7.4
445415.88,9066241.13,5.5
445419.42,9066237.54,4.4
445397.88,9066195.84,1.4
445402.08,9066192.95,0.3
445406.9,9066194.59,-0.2
445395.6,9066400.15,13.6
445395.1,9066392.32,13.5
445391.43,9066405.72,13.4
445388.81,9066387.63,13.2
445388.61,9066409.86,13.1
445383.01,9066418.55,12.9
445383.47,9066383.41,12.9
445371.92,9066431.55,12.9
445375.38,9066427.8,12.9
445378.8,9066423.96,12.8
445378.39,9066379.37,12.7
445385.83,9066414.17,12.7
445380.6,9066340.94,12.6
445372.44,9066374.87,12.6
445385.58,9066334,12.6
445377.6,9066344.99,12.5
445388.77,9066329.62,12.1
445394.13,9066479.7,11.8
445391.74,9066325.44,11.7
445394.79,9066554.58,11.6
445390.6,9066560.11,11.6
445388.4,9066485.23,11.6
445382.43,9066491.11,11.5
445377.26,9066496.35,11.5
445387.4,9066564.25,11.4
445372.25,9066502.34,11.4
445394.68,9066321.21,11.4
445384.05,9066568.38,11.3
445376.38,9066289.62,11.3
445380.76,9066572.23,11.1
445379.22,9066285.44,11
445377.4,9066576.07,10.8
445382,9066281.19,10.8
445374.09,9066579.92,10.8
445379.73,9066654.88,10.7
445384.7,9066276.92,10.6
445376.25,9066658.52,10.6
445393.02,9066640.9,10.6
445388.97,9066645.09,10.5
445383.56,9066650.81,10.4
445394.18,9066760.12,10.4
445377.97,9066747.98,10.4
445387.47,9066272.63,10.3
445390.14,9066757.13,10.2
445392.05,9066711.69,10.1
445381.95,9066751.02,10.1
445373,9066744.08,10.1
445387.38,9066717.25,10.1
445377.34,9066729.99,10
445386.11,9066754.14,9.9
445395.9,9066707.47,9.9
445391.6,9066266.86,9.9
445383.97,9066721.46,9.9
445380.4,9066725.95,9.9
445395.58,9066786.02,9.9
445391.41,9066790.43,9.8
445372.47,9066813.24,9.6
445374.62,9066888.94,9.6
445387.94,9066794.35,9.6
445394.97,9066262.77,9.6
445381.61,9066801.91,9.5
445377.64,9066806.9,9.4
445389.51,9066868.64,9.2
445394.94,9066861.95,9.2
445384.58,9066875.26,9.1
445381.52,9066879.54,9.1
445377.65,9066884.8,9
445388.56,9066949.81,8.9
445395.82,9066943.45,8.8
445372.77,9066972.7,8.8
445383.88,9066955.2,8.6
445375.52,9066968.47,8.4
445380.93,9066959.39,8.4
445378.09,9066964.08,8.4
445375.87,9066225.69,6.6
445382.69,9066218.02,6.5
445379.34,9066221.88,6.4
445388.29,9066211,6.1
445391.9,9066205.92,5.7
445394.62,9066201.59,3
445353.26,9066369.97,13.6
445355.31,9066363.69,13.6
445347.72,9066375.51,13.5
445360.51,9066362.84,13.5
445349.78,9066360.17,13.5
445348.25,9066322.27,13.4
445351.8,9066318.24,13.2
445367.83,9066435.63,13.1
445363.56,9066368.64,13.1
445360.17,9066442.34,13.1
445364.36,9066359.11,13.1
445364.02,9066439.06,13
445355.53,9066446.73,12.9
445368.23,9066355.39,12.9
445367.72,9066371.46,12.8
445355.35,9066314.56,12.8
445351.91,9066450.35,12.7
445371.75,9066351.72,12.7
445363.3,9066306.16,12.6
445358.93,9066310.93,12.6
445348.19,9066454.46,12.5
445367.68,9066301.02,12.4
445370.9,9066297.11,11.9
445369.45,9066506.52,11.2
445366.45,9066510.6,11
445363,9066514.49,10.9
445369.95,9066664.99,10.6
445359.57,9066518.48,10.6
445370.7,9066583.91,10.5
445365.25,9066669.8,10.5
445360.8,9066734.46,10.4
445366.98,9066588.47,10.4
445349.12,9066685.73,10.3
445347.89,9066611.81,10.3
445351.76,9066527.82,10.3
445356.44,9066522.46,10.3
445361.66,9066673.4,10.3
445363.44,9066592.77,10.3
445347.5,9066532.39,10.2
445346.99,9066724.08,10.2
445355.13,9066730.2,10.2
445366.51,9066821.73,10.2
445358.04,9066676.85,10.2
445356.82,9066600.59,10.1
445360.11,9066596.67,10.1
445352.18,9066606.35,10.1
445363.26,9066826.38,10.1
445352.75,9066681.81,10.1
445364.89,9066737.66,10
445359.99,9066752.87,10
445365.06,9066746.3,10
445371.74,9066737.3,10
445357.21,9066834.24,10
445350.99,9066727.08,9.9
445368.49,9066741.61,9.9
445353.81,9066760.03,9.8
445349.68,9066764.3,9.8
445369.42,9066817.45,9.7
445348.91,9066844.34,9.6
445354.01,9066838.16,9.5
445370.63,9066894.41,9.2
445348.6,9066923.74,9.1
445358.28,9066910.94,9
445367.55,9066898.51,8.9
445368.4,9066978.83,8.9
445354.03,9066916.6,8.8
445364.27,9066902.87,8.8
445361.26,9066906.88,8.8
445362.52,9066985.57,8.6
445349.61,9066256.33,8.6
445348.22,9066999.08,8.5
445358.91,9066989.18,8.5
445352.04,9066995.42,8.4
445353,9066252.33,8.1
445356.23,9066248.39,7.8
445359.35,9066244.45,7.5
445362.55,9066240.41,7.3
445365.88,9066236.37,7.1
445369.25,9066232.66,7
445349.14,9066196.62,6.7
445353.02,9066193.4,6.3
445356.76,9066189.73,6
445360.44,9066186.27,5.8
445364.44,9066182.6,5.4
445367.99,9066179.03,4.8
445370.84,9066174.92,3.2
445371.26,9066169.93,2.1
445324.25,9066286.73,14
445328.48,9066280.72,13.9
445337.38,9066336.77,13.8
445331.62,9066276.76,13.6
445340.63,9066332.48,13.6
445344.39,9066327.22,13.5
445334.12,9066340.81,13.4
445342.5,9066354.33,13.4
445344.17,9066379.23,13.3
445336.63,9066349.42,13.2
445325.72,9066340.58,13.1
445330.32,9066344.32,13.1
445340.88,9066383.06,13
445327.04,9066348.33,12.8
445322.78,9066352.27,12.8
445337.56,9066387.12,12.8
445334.96,9066272.98,12.7
445334.19,9066391.31,12.5
445324.42,9066406.72,12.4
445345.07,9066458.4,12.4
445342.12,9066462.44,12.4
445339.22,9066466.58,12.2
445329.41,9066398.1,12.2
445335.53,9066471.66,12.2
445332.19,9066475.73,11.9
445326.49,9066481.45,11.8
445322.85,9066485.06,11.7
445338.33,9066269.27,11.6
445325.29,9066553.22,10.6
445329.95,9066547.98,10.6
445341.66,9066265.54,10.6
445322.62,9066557.58,10.5
445323.94,9066640.06,10.5
445334.3,9066628.22,10.5
445339.96,9066718.6,10.5
445330.84,9066632.17,10.4
445339.65,9066539.8,10.4
445327.25,9066636.25,10.4
445341.27,9066620.07,10.4
445335.05,9066543.75,10.4
445343.36,9066536.36,10.4
445337.72,9066624.27,10.4
445345.41,9066689.91,10.3
445344.46,9066616.13,10.2
445341.36,9066694.64,10.2
445338.09,9066698.51,10.2
445328.07,9066708.86,10.2
445345.33,9066768.67,10.1
445334.82,9066702.42,10.1
445324.43,9066715.58,10
445332.09,9066712.1,10
445336.1,9066715.41,9.9
445340.25,9066854.86,9.9
445336.7,9066777.63,9.8
445340.55,9066773.55,9.8
445328.88,9066786.64,9.8
445332.44,9066782.44,9.7
445343.6,9066850.83,9.7
445336.94,9066858.89,9.7
445325.71,9066790.52,9.7
445344.96,9066261.75,9.6
445322.56,9066794.41,9.5
445326.27,9066220.46,9.4
445325.54,9066871.87,9.4
445328.99,9066867.92,9.3
445321.98,9066875.79,9.2
445333.53,9066862.76,9
445340.06,9066934.76,9
445345.56,9066927.74,8.9
445333.82,9066943.06,8.9
445332.37,9067019.03,8.9
445329.31,9066216.31,8.9
445330.25,9066947.58,8.8
445337.02,9066938.77,8.8
445338.54,9067010.8,8.8
445326.98,9066951.49,8.8
445341.61,9067006.79,8.7
445334.69,9067094,8.7
445326.84,9067025.63,8.7
445345.66,9067102.05,8.7
445323.61,9066955.5,8.7
445323.26,9067085.26,8.6
445323.51,9067029.63,8.6
445338.83,9067097.11,8.5
445335.44,9067015.02,8.5
445327.38,9067088.35,8.5
445344.84,9067002.84,8.3
445332.4,9066212.34,8.3
445335.81,9066208.51,7.7
445339.4,9066204.81,7.3
445343.16,9066201.38,6.9
445322.56,9066144.2,5.2
445324.75,9066139.65,3.4
445327.29,9066135.18,2.9
445331.37,9066132.24,1.3
445336.86,9066134.88,0.6
445321.3,9066291.17,13.7
445318.12,9066296.39,13.6
445313.71,9066303.58,13.5
445310.63,9066308.09,13.4
445302.01,9066318.01,13.4
445305.58,9066314.23,13.3
445307.41,9066326.67,13.1
445302.35,9066323,13
445321.81,9066337.44,13
445314.92,9066332.2,12.9
445313.37,9066417.1,12.8
445318.99,9066412.11,12.7
445317.43,9066357.46,12.6
445309.2,9066420.37,12.3
445312.71,9066362.27,12.3
445309.08,9066366.15,12
445304.66,9066371.06,12
445303.57,9066249.64,11.9
445297.2,9066257.76,11.9
445300.43,9066253.61,11.8
445318.06,9066490.08,11.8
445310.67,9066241.03,11.8
445306.59,9066503.89,11.7
445305.07,9066423.47,11.7
445314.66,9066493.93,11.7
445309.81,9066499.69,11.7
445301.24,9066375.18,11.7
445303.65,9066508,11.6
445297.8,9066379.51,11.5
445314.52,9066236.12,11.4
445298.85,9066514.29,11.4
445307.45,9066244.96,11.3
445301.12,9066426.7,11.3
445319.38,9066645.47,10.9
445317.61,9066232.14,10.9
445316.19,9066649.54,10.8
445308.79,9066582.59,10.7
445320.7,9066228.08,10.6
445321.48,9066703.88,10.5
445315.42,9066572.12,10.5
445320.32,9066562.02,10.5
445313.17,9066653.53,10.5
445300.58,9066669.63,10.5
445317.97,9066566.98,10.5
445304.59,9066692.08,10.5
445305.68,9066586.7,10.4
445312.84,9066576.54,10.4
445301,9066592.3,10.4
445307,9066661.34,10.3
445308.7,9066694.95,10.3
445303.75,9066665.46,10.3
445297.53,9066596.13,10.2
445315.46,9066727.12,10.1
445320.42,9066720.77,10.1
445312.97,9066697.91,10.1
445300.49,9066689.16,10
445309.12,9066735.29,10
445312.31,9066731.15,10
445299.59,9066747.84,9.9
445317.27,9066700.88,9.9
445305.52,9066740.04,9.8
445306.29,9066814.35,9.5
445319.28,9066798.43,9.4
445315.8,9066802.69,9.3
445310.9,9066808.62,9.3
445300.02,9066180.03,9.3
445303.36,9066818.47,9.2
445317.72,9066880.46,9.1
445304.76,9066895.31,9.1
445299.84,9066823.53,9.1
445308.38,9066890.79,9.1
445317,9066963.55,9
445309.13,9066973.24,9
445303.08,9066175.68,9
445312.92,9066885.69,9
445306.48,9066171.48,8.9
445301.37,9066981.95,8.7
445301.32,9067054.89,8.7
445317.05,9067037.3,8.7
445305.74,9066977.1,8.7
445311.67,9067043.68,8.7
445297.98,9066985.78,8.7
445320.19,9066959.65,8.7
445309.86,9066167.57,8.7
445305.21,9067050.84,8.7
445301.84,9066899.4,8.7
445314.87,9067078.85,8.7
445313.29,9066968.18,8.6
445297.81,9067058.48,8.6
445298.95,9066903.65,8.5
445301.15,9067067.66,8.5
445319,9067082.01,8.4
445313.21,9066163.16,8.4
445307.51,9067072.93,8.3
445315.89,9066158.91,8
445318.33,9066154.29,7
445320.36,9066149.57,6
445298.98,9066104.54,2.8
445300.75,9066099.73,1.8
445300.97,9066094.66,1.1
445281.99,9066278.77,13.6
445286.1,9066309.33,13.4
445290.1,9066312.59,13.4
445295.54,9066317.18,13.3
445275.36,9066288.45,13.3
445296.75,9066323.08,13.3
445279.12,9066282.98,13.2
445279.26,9066303.88,13.2
445284.85,9066274.62,13.2
445272.39,9066292.6,13.1
445293,9066326.53,13.1
445274.62,9066300.37,12.9
445287.89,9066270.36,12.8
445288.9,9066330.77,12.7
445284.48,9066335.91,12.6
445291.15,9066265.78,12.3
445281.07,9066339.77,12.1
445294.12,9066261.74,12
445273.44,9066348.12,11.8
445277.63,9066343.64,11.8
445294.37,9066383.65,11.3
445294.68,9066433.69,11.2
445286.24,9066443.88,11.2
445290.98,9066438.2,11
445277.77,9066404.78,11
445287.18,9066392.11,11
445280.72,9066400.68,11
445290.47,9066388.18,11
445274.62,9066408.92,10.8
445283.97,9066396.11,10.8
445283.02,9066448.02,10.7
445279.97,9066451.99,10.6
445276.09,9066214.45,10.6
445296.5,9066674.72,10.5
445293.21,9066678.64,10.4
445283.83,9066677.16,10.3
445274.64,9066670.5,10.3
445276.85,9066456.13,10.3
445285.57,9066688.21,10.3
445279.54,9066674.05,10.3
445288.27,9066680.38,10.3
445279.67,9066210.46,10.2
445294.99,9066685.23,10.2
445294.04,9066600.14,10.1
445282.38,9066692.31,10.1
445273.75,9066460.29,10
445279.17,9066696.4,10
445290.12,9066759.66,9.9
445293.19,9066520.29,9.9
445286.99,9066763.61,9.8
445290.74,9066604.09,9.8
445273.7,9066703.23,9.8
445283.03,9066206.57,9.8
445295.19,9066753.34,9.8
445283.81,9066841.68,9.7
445273.29,9066779.69,9.6
445276.25,9066621.54,9.6
445295.03,9066188.45,9.6
445283.72,9066767.6,9.6
445286.06,9066202.56,9.6
445276.61,9066775.8,9.5
445292.47,9066192.82,9.5
445288.81,9066836.48,9.5
445280.24,9066771.7,9.4
445289.66,9066197.37,9.4
445279.66,9066617.55,9.3
445289.6,9066523.89,9.2
445272.61,9066625.89,9.2
445283.29,9066613.2,9.1
445296.82,9066827.52,9.1
445287.55,9066608,9.1
445279.5,9066846.21,9.1
445292.34,9066832.76,9.1
445277.45,9067009.93,8.9
445276.03,9066849.83,8.9
445283.79,9066923.06,8.9
445280.27,9066926.75,8.8
445285.99,9066527.72,8.7
445293.81,9066911.03,8.7
445278.65,9067049.44,8.6
445274.47,9066933.42,8.6
445289.06,9066996.18,8.6
445287.61,9066918.76,8.6
445274.26,9067013.85,8.6
445287.05,9067056.28,8.6
445274.11,9066541.59,8.6
445285.54,9067072.3,8.5
445294.71,9066989.65,8.5
445282.32,9067076.33,8.5
445291.22,9067059.6,8.5
445280.36,9066534.19,8.4
445284.35,9067001.7,8.4
445272.21,9067043.7,8.4
445291.08,9067065.73,8.4
445281.05,9067005.61,8.3
445282.61,9067052.72,8.3
445279.15,9067080.38,8.3
445295.14,9067062.72,8.3
445276.08,9067084.36,8.1
445274.2,9066138.19,7.6
445277.56,9066134.17,7.1
445280.73,9066130.15,6.8
445283.94,9066126.08,6.6
445287.47,9066121.71,6.4
445290.63,9066117.44,6.1
445293.48,9066113.33,5.2
445296.29,9066109.09,4
445275.66,9066056.16,0.2
445280.33,9066058.04,-0.2
445248.23,9066247.32,12.9
445251.85,9066243.09,12.9
445270.53,9066297.45,12.9
445256.53,9066237.51,12.9
445259.78,9066233.61,12.8
445266.42,9066294.54,12.6
445260.05,9066289.07,12.5
445263.26,9066229.37,12.5
445254.85,9066283.51,12.5
445251.17,9066279.44,12.5
445264.05,9066302.3,12.4
445248.66,9066317.56,12.4
445259.54,9066306.83,12.4
445254.99,9066311.22,12.3
445267.96,9066354.15,11.9
445266.5,9066225.56,11.9
445264.59,9066358,11.8
445250.66,9066374.14,11.6
445260.43,9066363.12,11.5
445254.24,9066370.61,11.4
445269.99,9066221.39,11.4
445246.95,9066377.73,11.2
445270.43,9066414.39,10.9
445267.35,9066418.34,10.7
445254.27,9066435.77,10.7
445251.55,9066440.14,10.6
445264.09,9066422.6,10.5
445260.68,9066427.02,10.5
445257.15,9066431.63,10.5
445266.5,9066664.66,10.5
445248.42,9066445.47,10.4
445260.91,9066660.53,10.4
445256.38,9066721.78,10.2
445260.97,9066716.92,10
445248.15,9066166.44,10
445266.89,9066468.65,10
445249.69,9066729.26,10
445264.64,9066713.13,9.9
445270.15,9066464.75,9.9
445251.98,9066163.16,9.8
445260.61,9066476.95,9.8
445263.74,9066472.67,9.7
445270.42,9066707.01,9.7
445268.86,9066785.04,9.6
445257.22,9066481.55,9.6
445250.74,9066490.01,9.6
445253.77,9066485.99,9.6
445255.72,9066159.66,9.5
445265.57,9066788.91,9.4
445262.31,9066792.73,9.1
445248.9,9066807.03,9.1
445259.37,9066155.8,9.1
445258.95,9066796.52,9
445254.37,9066801.27,9
445268.19,9066631.31,9
445264.53,9066635.74,9
445261.04,9066867.49,9
445256.82,9066657.33,8.9
445258.09,9066871.93,8.9
445262.63,9067028.22,8.8
445261.22,9066639.74,8.8
445254.03,9066958.05,8.8
445252.77,9066879.34,8.8
445256.08,9066563.97,8.8
445251.05,9066570.8,8.8
445270.5,9067018.6,8.8
445262.4,9066555.34,8.8
445247.02,9066965.4,8.8
445270.04,9066855.85,8.7
445266.83,9066549.9,8.7
445257.86,9066643.78,8.7
445248.05,9066574.82,8.7
445270.68,9066545.5,8.6
445266.49,9066859.88,8.6
445259.2,9066559.58,8.6
445262.73,9066151.99,8.6
445268.53,9067040.06,8.6
445257.62,9066953.81,8.5
445264.55,9066945.22,8.5
445253.65,9066648.93,8.5
445266.93,9067023.08,8.5
445255.88,9067035.67,8.5
445262.59,9067034.15,8.4
445252.88,9066654.18,8.4
445252.29,9067039.36,8.4
445267.88,9066941.24,8.4
445248.99,9066650.97,8.4
445250.56,9066961.78,8.3
445256.32,9067028.05,8.3
445260.88,9066949.94,8.3
445248.81,9066884.31,8.3
445271.21,9066937.34,8.3
445249.29,9067021.2,8.2
445265.96,9066148.09,8.2
445269.53,9066143.85,8
445270.12,9067092.11,7.9
445267.08,9067096.09,7.9
445248.74,9066086.53,7.8
445263.79,9067100.16,7.7
445252.79,9067111.93,7.6
445260.26,9067104.07,7.5
445256.8,9067107.73,7.4
445248.37,9067116.53,7.4
445252.08,9066082.73,7.3
445255.4,9066078.97,5.8
445258.83,9066074.95,4.3
445261.92,9066070.95,3
445264.85,9066066.51,1.6
445268.37,9066061.25,1.6
445226.84,9066259.32,13.5
445222.28,9066255.53,13.3
445236.69,9066260.51,13.1
445231,9066262.62,13.1
445235.76,9066266.26,13
445244.93,9066251.19,13
445240.16,9066256.67,12.9
445228.33,9066269.07,12.9
445239.69,9066269.44,12.8
445225.02,9066272.97,12.7
445243.71,9066272.66,12.5
445233.79,9066335.81,12.4
445242.57,9066324.01,12.3
445225.44,9066187.67,12.2
445230.88,9066340.25,12.1
445238.12,9066329.7,12.1
445228.26,9066344.66,11.8
445229.04,9066183.99,11.8
445225.46,9066348.97,11.5
445232.62,9066180.44,11.3
445222.41,9066353.09,11.3
445243.57,9066381.54,11.1
445236.45,9066176.84,10.8
445240.49,9066385.57,10.8
445240.22,9066173.35,10.5
445237.1,9066389.82,10.5
445227.48,9066116.76,10.4
445230.71,9066112.41,10.4
445233.55,9066394.24,10.3
445243.98,9066169.98,10.3
445229.67,9066399.35,10.2
445245.66,9066449.71,10.2
445224.38,9066120.69,10.2
445225.92,9066404.52,10.1
445233.72,9066108.2,10.1
445222.91,9066408.69,10
445236.75,9066104.2,10
445236.85,9066460.54,10
445241.05,9066455.53,9.9
445233.61,9066464.44,9.8
445224.33,9066476.22,9.7
445230.4,9066468.35,9.7
445246.38,9066733.26,9.6
445246.87,9066495.24,9.5
445243.81,9066499.29,9.4
445239.98,9066099.84,9.4
445236.83,9066510.19,9.4
445224.79,9066526.74,9.3
445243.23,9066737.34,9.3
445239.88,9066505.07,9.3
445232.85,9066516.41,9.3
445230,9066520.53,9.3
445242.03,9066814.41,8.9
445239.45,9066585.14,8.9
445237.1,9066640.92,8.8
445234.36,9066590.47,8.8
445229.6,9066595.4,8.7
445244.91,9066578.97,8.7
445245.46,9066810.72,8.7
445242.69,9066095.47,8.7
445225.52,9066599.97,8.7
445228.73,9066913.11,8.6
445238.63,9066818.21,8.6
445241.14,9066644.33,8.6
445246.01,9067045.76,8.6
445235.47,9066669.69,8.6
445239.51,9067011.59,8.6
445245.39,9066888.74,8.5
445222.08,9066604.2,8.5
445231.74,9066673.84,8.5
445223.27,9066991.37,8.5
445224.01,9066629.86,8.5
445235.31,9066822.38,8.5
445245.13,9066647.7,8.5
445237.31,9066900.51,8.5
445243.11,9067015.09,8.5
445238.88,9066665.82,8.4
445232.29,9066636.86,8.4
445245.38,9066090.98,8.4
445225.58,9066917.22,8.4
445230.07,9066983.56,8.4
445242.32,9067049.47,8.4
445245.85,9066658.08,8.4
445243.33,9066969.06,8.3
445228.34,9066677.67,8.3
445228.21,9066633.41,8.3
445240.36,9066895.81,8.3
445242.23,9066662.06,8.3
445226.6,9066987.47,8.3
445231.67,9066908.97,8.3
445239.86,9066972.66,8.3
445224.94,9066681.52,8.3
445231.63,9066827.5,8.3
445225.61,9066836.25,8.2
445239.12,9066742.61,8.2
445233.65,9066979.63,8.2
445229.09,9067002.04,8.2
445238.67,9067053.09,8.2
445228.69,9066831.84,8.2
445235.83,9067008.17,8.2
445231.46,9066752.29,8.2
445221.91,9066921.58,8.2
445222.58,9066840.34,8.1
445235.01,9067056.77,8.1
445228.58,9067063.42,8.1
445234.56,9066904.77,8.1
445235.87,9066746.81,8.1
445225.34,9066998.71,8
445224.92,9067067.21,8
445228.01,9066756.21,7.9
445224.59,9066760.04,7.8
445244.72,9067120.45,7.3
445240.42,9067125.61,7.1
445237.41,9067129.75,6.9
445234.54,9067134.03,6.7
445231.59,9067138.62,6.6
445228.78,9067143.01,6.4
445226.11,9067147.26,6.3
445225.76,9066044.16,6.2
445223.3,9067151.54,6.2
445228.18,9066039.63,5.2
445230.4,9066035.12,3.6
445232.65,9066030.59,3.2
445235.09,9066026.22,2.1
445238.17,9066021.45,1.8
445240.46,9066016.84,1.6
445241.5,9066011.83,0.8
445216.82,9066251.11,13.1
445208.96,9066209.72,12.9
445216.35,9066198.28,12.9
445211.85,9066205.5,12.8
445203.69,9066216.57,12.7
445219.39,9066194.12,12.6
445200.67,9066220.63,12.4
445211.07,9066246.63,12.4
445221.68,9066277.12,12.4
445205.52,9066242.75,12.2
445197.77,9066224.74,12.2
445216.89,9066282.9,12.1
445206.16,9066145.25,11.8
445210.04,9066140.83,11.8
445198.68,9066152.28,11.8
445200.69,9066239.51,11.7
445213.39,9066287.27,11.7
445202.47,9066148.86,11.6
445213.12,9066136.82,11.5
445207.6,9066295.48,11.4
445217.83,9066358.75,11.1
445204.7,9066300.09,11.1
445216.2,9066132.62,11.1
445198.07,9066067.9,11
445198.81,9066380.77,10.9
445204.09,9066062.76,10.9
445202.69,9066376.01,10.9
445211.23,9066366.5,10.9
445207.68,9066370.55,10.8
445219.14,9066128.23,10.8
445199.83,9066307.84,10.7
445214.54,9066362.63,10.7
445201.05,9066435.67,10.4
445204.9,9066431.62,10.4
445208.08,9066059.66,10.3
445211.55,9066424.25,10.2
445215.6,9066418.95,10.2
445218.96,9066414.16,10.1
445204.99,9066496.21,9.9
445209.34,9066492.26,9.9
445215.41,9066486.67,9.8
445219.48,9066482.36,9.7
445200.7,9066500.48,9.7
445217.96,9066533.43,9.4
445214.28,9066536.93,9.3
445212.12,9066056.51,9.3
445204.22,9066548.49,9.2
445199.49,9066555,9.2
445210.28,9066540.99,9.2
445212.43,9066852.98,8.6
445208.4,9066621.32,8.6
445198.83,9066631.78,8.5
445204.83,9066625.21,8.5
445218.27,9066625.12,8.5
445197.98,9066945.41,8.5
445216.19,9066053.36,8.4
445215.79,9066612.26,8.4
445218.99,9066608.16,8.4
445212.01,9066617.09,8.4
445214.17,9066621.85,8.4
445199.45,9066610.4,8.4
445198.48,9066978.27,8.3
445201.88,9066941.54,8.3
445219.41,9066688.07,8.3
445205.6,9066615.19,8.3
445212.59,9066696.06,8.3
445216,9066692.2,8.3
445200.92,9066789.34,8.3
445205.51,9066938.04,8.2
445208.89,9066857.07,8.2
445207.69,9066780.95,8.2
445207.81,9066701.25,8.2
445214.88,9066929.08,8.2
445204.26,9066705.1,8.2
445197.33,9066793.91,8.1
445218.23,9066768.3,8.1
445204.43,9066784.85,8.1
445211.34,9066776.74,8.1
445215.66,9066849.11,8.1
445198.56,9066711.12,8.1
445202.64,9066981.09,8.1
445208.48,9066985.06,8.1
445219.53,9066844.35,8.1
445209.2,9066934.6,8
445218.38,9066996.93,8
445218.48,9066925.35,8
445214.64,9066772.79,8
445205.48,9066860.75,8
445201.56,9067016.44,8
445208.29,9067008.83,8
445216.5,9066991.06,8
445199.41,9066866.8,8
445205.01,9067012.63,8
445212.76,9067003.53,8
445198.1,9067020.27,8
445221.27,9066764.25,7.9
445220.15,9066050.06,7.9
445221.02,9067071.39,7.8
445217.65,9067075.19,7.7
445213.6,9067079.85,7.5
445210.37,9067083.69,7.4
445207.17,9067087.92,7.3
445204.3,9067092.14,7.2
445201.58,9067096.48,7
445198.76,9067100.93,6.9
445220.38,9067155.73,6
445217.34,9067159.8,5.8
445214.19,9067163.83,5.7
445210.58,9067168.32,5.5
445207.04,9067172.56,5.4
445203.8,9067176.49,5.2
445200.45,9067180.61,5.1
445198.46,9065978.72,2.3
445204.58,9065973.15,2.1
445208.83,9065970.26,1.7
445212.69,9065966.51,1.6
445183.38,9066166.75,12.5
445180.04,9066170.54,12.4
445190.38,9066159.77,12.3
445173.82,9066177.76,12.2
445194.18,9066156.27,12.1
445182.64,9066084.12,12
445187.32,9066078.81,12
445194.66,9066229.2,11.9
445174.12,9066223.03,11.9
445173.24,9066254.26,11.9
445178.63,9066247.73,11.7
445179.34,9066225.96,11.7
445193.5,9066234.37,11.6
445186.54,9066229.95,11.6
445186.38,9066239.24,11.6
445179.37,9066088.04,11.6
445182.88,9066242.99,11.6
445190.81,9066075.08,11.5
445172.57,9066096.25,11.3
445176.12,9066092.01,11.3
445194.42,9066071.41,11.1
445194.8,9066386.14,11
445192.03,9066390.33,10.8
445196.86,9066312.63,10.8
445193.91,9066317.39,10.7
445189.01,9066395.8,10.5
445186.27,9066400.22,10.5
445189.74,9066324.13,10.4
445183.26,9066404.28,10.4
445196.04,9066441.62,10.4
445172.54,9066343.25,10.3
445185.21,9066330.44,10.3
445178.79,9066409.38,10.2
445180.1,9066336.15,10.1
445176.32,9066339.72,10
445192.82,9066445.59,9.8
445175.23,9066413.11,9.7
445188.12,9066451.26,9.7
445185.12,9066522.18,9.6
445172.74,9066538.62,9.6
445177.31,9066532.37,9.6
445195.16,9066507.64,9.5
445180.55,9066528.14,9.5
445181.18,9066577.36,9.5
445190.13,9066515.29,9.4
445184.76,9066455.33,9.4
445178.46,9066463.26,9.2
445186.05,9066571.6,9.2
445177.92,9066581.22,9.2
445181.6,9066459.29,9.2
445187.1,9066600.8,9.1
445193.91,9066562.17,9.1
445174.42,9066585.49,9.1
445189.3,9066567.72,9
445173.35,9066660.12,9
445171.98,9066471.2,9
445175.24,9066467.23,8.9
445179.08,9066653.46,8.9
445182.55,9066597.18,8.9
445174.31,9066590.65,8.8
445191.25,9066604.04,8.8
445178.35,9066593.86,8.7
445182.38,9066649.7,8.6
445195.23,9066607.11,8.6
445176.05,9066968.44,8.6
445187.72,9066955.99,8.6
445172.59,9066972.18,8.5
445178.64,9066733.22,8.5
445186.12,9066645.73,8.5
445191.55,9066640,8.5
445175.74,9066737.35,8.5
445195.46,9066635.67,8.4
445172.74,9066741.98,8.3
445184.38,9066725.99,8.3
445180.75,9066963.43,8.3
445185.61,9066969.77,8.2
445193.17,9066950.41,8.2
445191.55,9066800.91,8.2
445193.37,9066974.83,8.2
445175.16,9066963.18,8.1
445180.67,9066813.57,8.1
445184.42,9066809.23,8.1
445175.69,9066819.54,8.1
445184.22,9066959.68,8.1
445187.71,9066722.26,8.1
445188.17,9066804.89,8
445191.37,9066874.85,8
445184.6,9066883.22,8
445193.76,9066715.91,8
445190.48,9067029.05,8
445181.68,9066887.71,8
445195.42,9066870.73,7.9
445175.61,9066896.78,7.9
445172.38,9066900.89,7.9
445178.55,9066892.61,7.9
445186.18,9067034.68,7.9
445187.84,9066878.81,7.9
445194,9067024.91,7.8
445182.21,9067039.78,7.7
445175.5,9067048.45,7.6
445178.73,9067044.26,7.5
445171.97,9067053.11,7.5
445175.24,9066024.92,7.3
445195.23,9067106.14,6.8
445192,9067110.41,6.6
445188.78,9067114.45,6.4
445185.3,9067118.79,6.4
445177.97,9066020.6,6.3
445182.13,9067122.73,6.2
445178.79,9067126.78,6.1
445174.05,9067132.35,5.8
445180.39,9066016.13,5.2
445192.62,9067190.35,5.1
445196.07,9067186.18,5
445183.94,9067199.91,4.9
445189.21,9067194.28,4.9
445180.3,9067203.59,4.8
445182.61,9066011.29,4.5
445176.66,9067207.02,4.4
445172.82,9067210.48,4.4
445184.71,9066006.2,3.8
445186.44,9066001.43,3.4
445188.01,9065996.42,3
445189.51,9065991.6,2.5
445191.58,9065986.96,1.9
445194.73,9065982.73,1.8
445169.95,9066181.89,12.4
445161.62,9066192.04,12.4
445154.08,9066201.42,12.3
445166.61,9066185.72,12.2
445157.33,9066197.41,12.2
445148.8,9066203.16,12.2
445147.15,9066210.16,12.2
445152.68,9066206.54,12
445147.43,9066123.82,12
445157.56,9066210.74,12
445161.43,9066213.99,11.8
445168.88,9066219.79,11.7
445156.11,9066278.1,11.7
445150.86,9066120.09,11.7
445152.81,9066281.99,11.6
445169.9,9066258.26,11.6
445155.34,9066115.18,11.5
445159.77,9066272.82,11.3
445168.7,9066100.74,11.3
445158.8,9066111.51,11.3
445149.03,9066285.92,11.3
445164.7,9066105.15,11.2
445165.85,9066263.47,11.2
445162.99,9066267.73,10.9
445162.96,9066351.71,10.1
445149.21,9066053.23,10.1
445167.93,9066347.42,10
445152.35,9066360.48,10
445158.67,9066355.23,10
445147.98,9066364.63,10
445152.78,9066049.55,9.9
445171.69,9066416.79,9.8
445156.34,9066045.95,9.7
445164.58,9066550.1,9.7
445169.71,9066542.76,9.7
445161.56,9066580.28,9.6
445161.75,9066554.6,9.6
445167.81,9066420.83,9.6
445160.11,9066042.14,9.4
445158.99,9066558.81,9.4
445161.7,9066427.32,9.4
445157.62,9066576.96,9.3
445156.25,9066563.06,9.3
445148.53,9066573.26,9.3
445168.26,9066585.8,9.2
445158.38,9066431.18,9.2
445153.42,9066567.2,9.2
445153.66,9066573.69,9.2
445163.98,9066038.1,9.1
445147.72,9066445.18,9.1
445153.06,9066437.99,9.1
445154.5,9066609.81,9
445169.29,9066665.17,8.9
445164.89,9066597.29,8.9
445151.08,9066613.98,8.9
445168.07,9066593.4,8.9
445167.42,9066034.42,8.9
445156.9,9066679.61,8.9
445147.44,9066618.44,8.9
445163.56,9066672.13,8.9
445157.71,9066605.91,8.9
445161.54,9066601.29,8.9
445153.51,9066683.45,8.8
445168.43,9066475.38,8.8
445154.8,9066491.53,8.7
445150.25,9066687.41,8.6
445160.73,9066484.43,8.6
445165.06,9066479.29,8.6
445150.55,9066496.37,8.6
445147.08,9066691.57,8.6
445167.95,9066977.53,8.5
445164.52,9066833.62,8.5
445170.84,9066030.64,8.4
445171.2,9066825.19,8.4
445167.71,9066829.66,8.3
445164.7,9066981.72,8.3
445147.93,9066775.57,8.3
445157.8,9066918.51,8.3
445167.99,9066748.98,8.2
445163.22,9066955.38,8.2
445147.61,9066853.35,8.2
445161.37,9066986.31,8.1
445165.01,9066753.22,8.1
445151.06,9066849.56,8.1
445152.66,9066924.64,8.1
445148.99,9066928.95,8
445154.84,9066845.23,8
445162.12,9066757.34,8
445157.4,9066991.93,8
445158.4,9066952.32,8
445164.25,9066910.76,7.9
445168.83,9066905.13,7.9
445155,9066767.04,7.9
445167.51,9066958.16,7.9
445151.26,9066771.74,7.9
445161.02,9066914.65,7.9
445158.87,9066761.9,7.9
445158.36,9066841.08,7.8
445151.06,9066947.58,7.8
445154.37,9066996.16,7.7
445150.81,9067001.47,7.7
445147.77,9067006.14,7.5
445167.76,9067058.83,7.4
445164.67,9067062.93,7.2
445161.49,9067067.11,7
445158.15,9067071.69,6.9
445155.21,9067075.83,6.7
445152.2,9067079.99,6.6
445149.04,9067084.23,6.4
445169.64,9067137.38,5.8
445166.17,9067141.13,5.7
445160.1,9067147.29,5.6
445156.45,9067150.92,5.4
445151.42,9067156.15,5.2
445147.88,9067160.39,5.1
445169.1,9067213.86,4.2
445165.61,9067217.5,3.9
445162.44,9067221.41,3.7
445159.5,9067225.5,3.5
445153,9067233.3,3.4
445156.41,9067229.62,3.4
445147.92,9067238.62,3
445138.42,9066133.59,12.2
445143.24,9066128.48,12.2
445134.64,9066137.63,11.9
445144.02,9066214.09,11.8
445131.28,9066141.45,11.6
445140.91,9066197.04,11.5
445145.22,9066289.76,11.2
445140.85,9066218.13,11.2
445126.84,9066078.94,11.2
445130.46,9066074.76,11.1
445128.07,9066145.44,11.1
445134.6,9066070.01,11
445137.78,9066222.15,11
445136.22,9066193.31,10.8
445134.75,9066226.26,10.8
445137.89,9066066.17,10.7
445128.06,9066187.05,10.6
445123.98,9066183.49,10.6
445124.88,9066149.54,10.5
445138.73,9066296.5,10.4
445131.73,9066230.29,10.4
445132.18,9066190.24,10.4
445141.23,9066062.36,10.4
445128.6,9066234.3,10.3
445144.95,9066058.06,10.3
445135.25,9066300.67,10.1
445144.52,9066368.28,10
445132.22,9066304.67,10
445128.29,9066310.25,10
445125.4,9066238.32,10
445140.36,9066372.94,10
445143.8,9066565.92,9.9
445135.53,9066379.1,9.9
445122.32,9066242.29,9.8
445129.77,9066387.31,9.7
445125.27,9066314.5,9.7
445122.51,9066548.86,9.7
445122.28,9066318.52,9.6
445126.65,9066391.33,9.5
445125.73,9066592.93,9.4
445126.4,9066552.05,9.3
445138.37,9066561.63,9.3
445129.84,9066589.37,9.2
445134.45,9066558.49,9.2
445144.09,9066577.52,9.2
445137.36,9066630.34,9.1
445137.78,9066704.89,9.1
445130.41,9066555.26,9.1
445142.21,9066624.67,9.1
445139.96,9066580.9,9
445143.85,9066450.39,9
445134.24,9066634.28,9
445122.95,9066475.13,9
445133.68,9066585.93,9
445139.03,9066456.55,9
445126.7,9066471.52,9
445134.82,9066709.04,9
445132.36,9066465.27,8.9
445135.9,9066460.69,8.9
445131.14,9066638.32,8.9
445141.34,9066699.88,8.8
445144.18,9066695.72,8.7
445128.02,9066642.58,8.6
445131.94,9066713.15,8.6
445124.47,9066524.75,8.5
445124.54,9066799.22,8.5
445128.79,9066717.56,8.5
445124.06,9066647.99,8.5
445125.62,9066721.83,8.5
445128.98,9066519.84,8.5
445135.16,9066513.07,8.5
445142.74,9066504.76,8.4
445146.66,9066500.56,8.4
445139.05,9066508.73,8.4
445143.9,9066779.85,8.2
445134.67,9066936.58,8.1
445146.59,9066944.67,8
445144.21,9066934.52,8
445133.36,9066790.59,7.9
445140.44,9066783.5,7.9
445128.18,9066795.73,7.9
445141.47,9066859.93,7.9
445126.43,9066877.21,7.8
445128.18,9066952.15,7.8
445137.07,9066864.71,7.8
445130.48,9066872.39,7.8
445133.63,9066946.2,7.8
445124.42,9066956.1,7.8
445138.92,9066939.51,7.8
445122.81,9066881.65,7.8
445128.58,9066932.4,7.7
445133.75,9066868.56,7.7
445142.94,9067013.36,7.5
445140.02,9067017.51,7.4
445136.96,9067021.7,7.4
445130.22,9067030.46,7.2
445133.94,9067025.72,7.1
445127.04,9067034.41,7.1
445123.75,9067038.46,6.9
445145.67,9067088.61,6.4
445142.55,9067092.53,6.3
445139.39,9067096.47,6.2
445136.28,9067100.43,6.1
445132.98,9067104.34,6
445127.65,9067110.38,5.7
445124.11,9067114.17,5.6
445143.74,9067166.56,5
445141.09,9067171.32,4.8
445138.79,9067175.76,4.8
445136.33,9067180.25,4.6
445131.79,9067186.93,4.4
445128.42,9067190.81,4.3
445124.46,9067194.05,4.2
445121.7,9066084.95,11.1
445118.38,9066088.8,11
445113.3,9066094.59,10.7
445117.08,9066160.39,10.5
445109.82,9066098.77,10.5
445114.38,9066164.84,10.5
445121.81,9066153.53,10.3
445116.16,9066176.74,10.2
445120.13,9066180.15,10.2
445106.55,9066102.94,10.1
445097.78,9066199.18,10.1
445109.04,9066170.47,10
445101.15,9066193.84,10
445103.28,9066107.29,10
445103.88,9066188.35,9.9
445100.23,9066111.34,9.8
445108.06,9066178.77,9.8
445105.97,9066183.76,9.7
445097.12,9066115.32,9.7
445121.85,9066396.46,9.6
445117.95,9066247.8,9.6
445105.21,9066167.18,9.6
445118.71,9066322.91,9.6
445114.7,9066252.03,9.5
445118.3,9066399.99,9.4
445118.42,9066598.68,9.4
445111.92,9066330,9.3
445101.33,9066163.78,9.3
445111.71,9066256.05,9.3
445097.41,9066160.35,9.2
445105.56,9066336.24,9.2
445114.43,9066601.77,9.2
445106.42,9066262.42,9.2
445100.23,9066341.59,9.2
445114.88,9066403.66,9.2
445110.85,9066408.18,9.1
445108.52,9066743.54,9
445105.1,9066414.24,9
445102.53,9066266.93,9
445114.47,9066483.41,9
445104.94,9066747.82,8.9
445098.41,9066421.66,8.9
445118.08,9066479.83,8.8
445100.48,9066753.19,8.8
445115.64,9066542.95,8.8
445110.14,9066605.23,8.8
445111.01,9066487.07,8.8
445115.03,9066535.54,8.7
445117.93,9066731.34,8.7
445111.56,9066739.56,8.7
445097.72,9066501.58,8.7
445107.61,9066490.75,8.6
445105.13,9066547.61,8.6
445111.78,9066539.63,8.6
445118.38,9066531.62,8.6
445101.12,9066497.87,8.5
445108.28,9066543.72,8.5
445099.26,9066615.73,8.5
445100.12,9066554.31,8.5
445098.51,9066528.85,8.5
445105.78,9066534.62,8.5
445101.82,9066673.71,8.5
445110,9066664.78,8.4
445114.63,9066735.53,8.4
445106.31,9066608.51,8.4
445105.84,9066669.33,8.4
445121.15,9066727.42,8.4
445096.95,9066558.25,8.4
445117.23,9066806.23,8.3
445114.61,9066659.7,8.3
445118.6,9066655.05,8.3
445102.68,9066611.95,8.3
445120.85,9066802.68,8.3
445111.09,9066813.46,8.1
445106.13,9066903.89,8.1
445102.58,9066907.98,8.1
445101.11,9066826.74,8.1
445115.65,9066890.99,8.1
445104.54,9066822.3,8.1
445109.08,9066919.44,8.1
445118.7,9066886.91,8
445110.65,9066897.82,7.9
445117.08,9066963.59,7.9
445107.56,9066818.15,7.9
445107.82,9066972.85,7.9
445120.73,9066959.95,7.9
445100.21,9066912.79,7.8
445104.61,9066916.18,7.8
445113.45,9066967.07,7.8
445113.3,9066922.31,7.7
445120.46,9066926.97,7.7
445098.92,9066983.61,7.7
445104.31,9066976.82,7.6
445120.34,9067042.65,6.8
