426683.94,9053882.12,7.5
426685.36,9053876.78,7.5
426682.4,9053889.13,7.4
426681.53,9053894.19,7
426681.1,9053899.2,5.1
426681.61,9053904.18,4.6
426685.31,9053907.63,3.3
426685.33,9053441.81,3.1
426679.54,9053440.36,2.8
426690.39,9053443.01,2.8
426699.98,9053445.04,2.8
426660.52,9053435.56,3.1
426674.61,9053439.11,3.1
426655.66,9053434.28,3
426665.94,9053436.96,2.9
426643.66,9053431.15,3.1
426650.47,9053432.89,3.1
426638.65,9053430.09,2.8
426633.34,9053429.19,2.4
426628.34,9053428.47,2.3
426602.95,9053676.1,6.8
426602.48,9053681.43,6.8
426603.4,9053669.4,6.8
426603.8,9053659.47,6.6
426603.97,9053652.19,6.4
426604.21,9053644.6,6.2
426604.46,9053639.41,6.1
426604.87,9053634.29,5.9
426605.21,9053626.08,5.7
426606.71,9053578.33,5.7
426605.37,9053619.09,5.7
426606.78,9053571.78,5.6
426606.42,9053587.55,5.6
426605.76,9053611.04,5.6
426606.01,9053604.83,5.5
426606.18,9053593.86,5.5
426606.02,9053599.59,5.4
426606.97,9053565.67,5.4
426607.25,9053560.44,5.2
426607.74,9053555.31,5
426608.49,9053550.19,5
426609.51,9053544.09,4.9
426610.32,9053538.94,4.8
426611.12,9053533.98,4.7
426611.94,9053529.03,4.6
426612.64,9053523.92,4.5
426613.14,9053518.63,4.5
426613.59,9053513.42,3.7
426613.85,9053508.33,3.6
426613.96,9053503.21,3.5
426613.99,9053497.69,3.3
426614.15,9053490.75,3.3
426614.73,9053483.07,3.2
426615.78,9053473.21,3
426617.47,9053458.52,2.9
426616.33,9053467.74,2.9
426618.26,9053453.23,2.8
426619.08,9053448.25,2.7
426619.93,9053442.75,2.6
426620.54,9053437.66,2.5
426620.96,9053432.11,2.4
426621.49,9053427.01,2.3
426610.82,9053426.73,2.2
426605.69,9053426.44,2.1
426615.91,9053427.06,2.1
426622.31,9053421.85,1.9
426623.2,9053416.65,1.8
426623.82,9053411.59,1.6
426624.01,9053406.51,1.4
426622.95,9053399.05,1.3
426620.86,9053381,1.1
426622.24,9053393.66,1.1
426622.19,9053388.64,1
426620.51,9053375.97,0.9
426627.11,9053374.81,0.9
426597.47,9053773.17,8.7
426598.41,9053762.81,8.6
426595.14,9053792.6,8.6
426596.37,9053780.78,8.6
426595.61,9053787.27,8.5
426598.09,9053767.87,8.5
426598.53,9053756.27,8.4
426594.74,9053797.66,8.4
426598.35,9053745.34,8.3
426593.55,9053809.55,8.3
426597.92,9053734.11,8.2
426592.82,9053816.03,8.2
426594.16,9053804,8.2
426598.53,9053751.25,8.1
426598.16,9053740.07,8.1
426598.01,9053727.44,8
426592.15,9053821.09,7.9
426598.31,9053722.36,7.8
426590.96,9053830.66,7.7
426590.19,9053837.66,7.7
426598.58,9053717.21,7.7
426589.53,9053842.72,7.6
426598.93,9053712.03,7.5
426588.53,9053849.02,7.4
426599.37,9053706.92,7.3
426599.96,9053701.57,7.2
426587.48,9053856.84,7.1
426600.73,9053695.3,7
426586.99,9053862.53,7
426586.73,9053867.65,6.9
426586.51,9053878.16,6.8
426601.36,9053690.23,6.8
426586.56,9053872.83,6.8
426586.71,9053883.41,6.5
426587.07,9053889.28,6
426585.69,9053894.1,4.4
426593.67,9053425.45,2.2
426581.23,9053424.05,2.2
426587.08,9053424.69,2.2
426598.67,9053425.93,2.1
426557.65,9053421.97,2.4
426552.28,9053421.66,2.4
426563.02,9053422.29,2.4
426568.49,9053422.69,2.3
426576.22,9053423.48,2.3
426537.08,9053421.03,2.6
426547.15,9053421.44,2.5
426527.8,9053420.69,2.5
426542.08,9053421.27,2.5
426503.71,9053662.87,5.6
426504.92,9053657.9,4.5
426516.91,9053527.32,4.4
426516.47,9053521.29,4.4
426516.53,9053509.74,4.3
426517.26,9053535.29,4.3
426516.9,9053504.21,4.2
426516.32,9053515.77,4.2
426518.06,9053495.16,4.1
426517.13,9053544.33,4
426518.96,9053489.74,4
426506,9053652.95,3.9
426507.18,9053646.94,3.9
426520.53,9053481.31,3.9
426516.45,9053551.45,3.9
426522.08,9053470.26,3.8
426512.2,9053618.24,3.8
426508.18,9053641.6,3.7
426514.49,9053600.19,3.7
426521.5,9053475.4,3.7
426515.38,9053589.51,3.7
426515.61,9053557.24,3.6
426511.45,9053623.82,3.6
426515.09,9053580.98,3.6
426512.99,9053612.59,3.6
426513.58,9053607.28,3.6
426514.58,9053572.54,3.5
426522.44,9053465.22,3.5
426514.84,9053562.27,3.5
426515.07,9053594.63,3.5
426510.01,9053631.77,3.4
426514.44,9053567.28,3.4
426522.5,9053459.44,3.4
426521.91,9053451.69,3.3
426521.01,9053446.53,3.2
426519.97,9053441.55,2.9
426519.16,9053436.19,2.8
426518.79,9053430.52,2.7
426518.7,9053425.14,2.6
426507.4,9053420.13,2.6
426515.84,9053420.64,2.4
426521.79,9053420.63,2.4
426519.9,9053415.6,2.3
426521.61,9053409.28,2.1
426522.81,9053404.36,1.8
426523.52,9053398.98,1.7
426523.35,9053393.38,1.6
426522.8,9053379.29,1.5
426523.2,9053374.08,1.5
426522.47,9053385.13,1.5
426523.51,9053365.84,1.4
426492.85,9053746.98,8.9
426482.2,9053874.16,8.9
426494.77,9053761.25,8.8
426497.42,9053788.51,8.8
426493.88,9053754.68,8.8
426495.72,9053767.7,8.7
426491.91,9053740.34,8.7
426496.37,9053773.73,8.7
426497.15,9053782.92,8.7
426491.22,9053735.04,8.6
426497.6,9053793.59,8.6
426497.62,9053800.32,8.4
426483.92,9053869.45,8.4
426490.8,9053728.62,8.3
426497.29,9053805.38,8.3
426495.76,9053817.89,8.2
426490.86,9053723.45,8.2
426490.33,9053851.3,8.2
426491.27,9053718.32,8.2
426496.62,9053811.19,8.1
426492.67,9053839.46,8.1
426491.9,9053712.98,8.1
426491.77,9053845.46,8
426494.2,9053828.14,8
426493.36,9053834.48,8
426494.95,9053822.97,8
426487.98,9053858.06,7.9
426492.56,9053708,7.8
426485.84,9053864.82,7.8
426481.68,9053879.29,7.8
426493.2,9053702.75,7.6
426493.82,9053697.52,7.4
426494.58,9053692.49,7.2
426495.63,9053687.38,7.1
426496.96,9053682.4,6.9
426498.75,9053677.07,6.6
426500.52,9053672.28,6.4
426482.71,9053884.28,5.7
426485.47,9053888.6,3.9
426492.46,9053890.02,3
426494.1,9053417.71,2.6
426488.99,9053416.74,2.6
426483.04,9053415.99,2.6
426499.04,9053418.72,2.6
426456.95,9053412.47,2.8
426461.91,9053413.62,2.8
426466.91,9053414.59,2.7
426474.9,9053415.45,2.7
426431.66,9053407.72,3.3
426436.67,9053408.4,3.1
426441.92,9053409.24,3
426427.58,9053401.19,2.9
426451.35,9053411.23,2.9
426428.72,9053395.28,2.6
426429.43,9053390.29,2.3
426430.14,9053371.29,2.3
426430.23,9053381.95,2.3
426430.33,9053376.53,2.3
426429.7,9053365.73,2.3
426429.08,9053358.96,2.2
426428.67,9053353.91,2.1
426428.48,9053347.74,2
426429.16,9053342.59,1.9
426435.76,9053336.17,1.7
426422.38,9053454.63,4.6
426422.93,9053449.24,4.6
426423.38,9053441.37,4.6
426421.59,9053460.84,4.6
426420.95,9053466.25,4.4
426423.61,9053434.9,4.3
426404.68,9053604.98,4.2
426409.11,9053555.81,4.2
426404.14,9053611.21,4.2
426408.46,9053561.05,4.2
426403.55,9053617.68,4.1
426406.19,9053578.83,4.1
426410.76,9053533.73,4.1
426410.37,9053539.75,4.1
426405.88,9053585.55,4.1
426403.13,9053623.13,4.1
426409.93,9053546.56,4.1
426411.29,9053525.69,4.1
426405.67,9053592.72,4
426406.8,9053572.8,4
426405.15,9053599.82,4
426412.6,9053517.55,4
426423.76,9053429.63,4
426407.73,9053566.32,4
426424.22,9053420.89,3.8
426402.54,9053632.2,3.8
426413.84,9053512.67,3.8
426402.16,9053637.23,3.8
426420.39,9053471.39,3.6
426416.21,9053503.55,3.6
426424.69,9053415.71,3.6
426425.47,9053410.76,3.4
426417.48,9053496.82,3.3
426405.96,9053404.04,3.3
426422.89,9053406.46,3.3
426413.04,9053405,3.3
426418.24,9053491.78,3.2
426419.92,9053476.42,3.2
426418.96,9053486.23,2.9
426394.26,9053829.2,8.5
426394.65,9053820.94,8.5
426393.79,9053834.71,8.4
426395.02,9053814.64,8.3
426395.52,9053806.43,8
426396.12,9053796.99,7.9
426396.81,9053786.88,7.8
426393.05,9053842.08,7.8
426396.45,9053791.91,7.7
426398.71,9053855.28,7.7
426397.09,9053780.14,7.7
426394.64,9053852.22,7.5
426398.11,9053768.08,7.5
426397.49,9053775.01,7.4
426399.03,9053755.34,7.4
426398.56,9053762.84,7.4
426399.13,9053744.16,7.4
426399.17,9053749.16,7.3
426399.13,9053738.53,7.3
426399.54,9053726.38,7.1
426399.23,9053733.44,7
426393.52,9053847.15,7
426399.62,9053716.21,6.8
426399.57,9053721.35,6.8
426399.74,9053709.59,6.5
426399.9,9053702.81,6
426400.01,9053697.63,5.4
426400.09,9053692.6,5
426400.18,9053687.4,4.2
426400.27,9053682.32,4
426400.71,9053664.76,3.9
426401.37,9053646.12,3.8
426400.45,9053676.73,3.7
426400.95,9053653.32,3.7
426400.64,9053669.76,3.7
426400.85,9053659.48,3.7
426385.06,9053402.17,3.5
426390.06,9053402.71,3.4
426395.38,9053403.24,3.4
426400.56,9053403.62,3.3
426363.27,9053399.24,3.9
426371.86,9053400.36,3.8
426377.06,9053401.06,3.8
426356.88,9053398.42,3.7
426351.89,9053397.79,3.1
426346.88,9053397.18,2.3
426331.48,9053394.94,2.1
426341.88,9053396.42,2
426336.91,9053395.67,2
426327.39,9053302.96,1.7
426322.46,9053362.94,6.5
426323.05,9053356.27,6.4
426323.42,9053351.24,6.1
426311.2,9053540.88,4.7
426310.92,9053534.21,4.6
426311.06,9053526.34,4.6
426312.29,9053515.59,4.6
426311.34,9053546.42,4.5
426313.29,9053509.98,4.5
426311.22,9053554.23,4.5
426311.56,9053521.14,4.4
426314.35,9053504.78,4.4
426315.45,9053498.83,4.3
426310.94,9053567.46,4.3
426310.56,9053573.19,4.2
426311.04,9053562.18,4.2
426318.25,9053482.28,4.2
426310.05,9053578.26,4.2
426321.95,9053368,4.2
426316.92,9053490.02,4.1
426309.51,9053586.32,4.1
426309.21,9053592.16,4
426319.67,9053474.26,4
426323.65,9053346.23,4
426307.33,9053605.32,3.9
426305.21,9053616.01,3.9
426308.56,9053597.19,3.9
426320.81,9053467.08,3.8
426303.88,9053622.78,3.8
426306.32,9053610.74,3.8
426321.32,9053462.02,3.7
426321.41,9053456.91,3.4
426321.2,9053449.56,3.3
426320.85,9053444.54,3.1
426320.63,9053438.86,2.9
426320.62,9053433.58,2.9
426320.84,9053427.67,2.7
426321.1,9053420.69,2.5
426323.8,9053341.09,2.5
426321.23,9053415.14,2.4
426324.35,9053329.09,2.3
426321.29,9053406.05,2.3
426324.06,9053334.97,2.3
426324.68,9053323.74,2.2
426305.49,9053390.45,2.2
426321.24,9053373.03,2.2
426321.35,9053399.9,2.2
426316.27,9053392.47,2.1
426321.02,9053384.2,2.1
426321.21,9053390.92,2
426325.1,9053318.63,2
426325.73,9053394.23,2
426325.62,9053313.46,2
426320.9,9053378.83,2
426310.45,9053391.31,2
426326.36,9053307.99,1.9
426294.5,9053861.99,8.7
426295.73,9053856.11,8.6
426295.01,9053839.96,8.4
426295.81,9053845.99,8.4
426293.76,9053832.53,8.4
426293.02,9053825.06,8.2
426295.98,9053851.08,8.1
426292.59,9053818.32,7.9
426292.1,9053808.85,7.8
426291.76,9053802.22,7.7
426291.77,9053796.59,7.7
426291.81,9053789.11,7.6
426292.07,9053782.7,7.5
426291.62,9053872.68,7.3
426292.44,9053777.67,7.2
426293.13,9053769.81,7.1
426293.73,9053762.54,7
426293.65,9053751.29,6.7
426293.94,9053756.34,6.6
426293.09,9053745.95,6.3
426290.75,9053877.72,6.2
426292.45,9053739.3,6
426293.12,9053866.83,5.7
426291.93,9053734.32,5.7
426291.44,9053729.33,5.3
426291.11,9053724.06,4.9
426291,9053718.95,4.4
426294.36,9053699,4.1
426291.38,9053713.8,4.1
426293.14,9053704.44,3.9
426301.88,9053632.06,3.9
426299.34,9053646.28,3.8
426296.45,9053680.67,3.7
426295.92,9053688.88,3.7
426298.19,9053655.68,3.7
426297.44,9053664.56,3.7
426296.88,9053673.43,3.7
426300.32,9053640.43,3.6
426295.3,9053694,3.6
426292.44,9053882.46,3.3
426278.34,9053385.64,2.1
426292.36,9053388.42,2
426300.48,9053389.62,2
426287.34,9053387.6,2
426264.27,9053381.56,2.1
426273.06,9053384.2,2.1
426256.14,9053378.63,2.1
426228.08,9053366.88,2.2
426232.75,9053369.05,2.2
426243.81,9053373.64,2.1
426250.24,9053376.2,2.1
426239.07,9053371.74,2.1
426231.8,9053275.27,1.7
426229.99,9053285.22,1.7
426233.28,9053269.92,1.7
426236.14,9053249.8,1.6
426229.61,9053290.41,1.6
426230.04,9053308.42,1.6
426229.64,9053296.12,1.6
426228.03,9053331.38,1.6
426235.38,9053261.64,1.6
426236.05,9053256.02,1.6
426229.84,9053301.18,1.6
426229.84,9053316.46,1.5
426229.32,9053322.08,1.5
426236.04,9053235.56,1.5
426235.22,9053242.75,1.4
426240.86,9053234.23,1.2
426202.62,9053769.98,6.4
426203.24,9053764.83,6.1
426203.7,9053759.84,5.6
426203.85,9053752.88,5.4
426203.82,9053747.34,5
426203.72,9053738.72,4.7
426221.18,9053493.57,4.7
426223.11,9053481.33,4.5
426220.39,9053498.53,4.5
426203.67,9053730.42,4.5
426223.68,9053476.15,4.5
426222.35,9053486.37,4.5
426203.7,9053724.31,4.4
426219.58,9053503.48,4.4
426204.34,9053708.99,4.4
426203.81,9053719.27,4.3
426224.24,9053470.75,4.3
426218.33,9053510.21,4.3
426215.06,9053568.77,4.3
426204.06,9053714.02,4.3
426217.05,9053517.13,4.3
426204.79,9053703.25,4.3
426214.63,9053574.1,4.3
426214.61,9053590.8,4.2
426223.79,9053456.8,4.2
426214.57,9053585.69,4.2
426224.34,9053462.2,4.2
426206.4,9053689.2,4.2
426213.92,9053604.89,4.2
426215.73,9053563.56,4.2
426214.5,9053579.21,4.1
426213.29,9053616.72,4.1
426205.79,9053694.55,4.1
426213.6,9053610,4.1
426214.42,9053595.85,4.1
426216.59,9053553.15,4
426216.77,9053544.12,4
426222.41,9053448.92,4
426221.71,9053443.77,4
426216.28,9053558.45,3.9
426216.03,9053527.14,3.9
426211.58,9053641.95,3.9
426216.5,9053536.71,3.9
426212.85,9053623.71,3.8
426207.65,9053678.86,3.8
426211.98,9053635.95,3.8
426212.41,9053629.82,3.8
426207.05,9053684.05,3.8
426211.13,9053647.05,3.8
426209.27,9053666.35,3.8
426208.47,9053672.5,3.8
426210.28,9053656.89,3.7
426221.81,9053436.38,3.7
426222.04,9053428.85,3.7
426221.64,9053422.9,3.5
426220.81,9053416.68,3.3
426220.2,9053411.33,3.1
426219.89,9053405.45,3.1
426219.81,9053400.24,2.8
426219.95,9053395.02,2.6
426220.37,9053388.97,2.5
426220.89,9053383.88,2.5
426221.56,9053378.75,2.4
426222.49,9053371.7,2.2
426202.18,9053353.85,2.2
426223.63,9053361.01,2.2
426223.09,9053366.33,2.1
426216.67,9053361.34,2.1
426206.63,9053356.2,2
426211.14,9053358.57,2
426224.33,9053354.84,2
426225.23,9053348.03,1.9
426225.99,9053342.82,1.7
426226.94,9053337.67,1.6
426191.34,9053856.75,9.1
426192.39,9053850.71,8.7
426193.7,9053841.83,8.5
426194.56,9053831.48,8.5
426194.23,9053836.58,8.3
426190.24,9053861.7,8.2
426195.43,9053822.02,7.9
426196.69,9053812.37,7.8
426197.24,9053807.3,7.6
426197.79,9053802.26,7.3
426198.43,9053796.46,7.1
426199.49,9053788.9,7
426200.53,9053783.35,6.8
426201.77,9053776.12,6.7
426189.05,9053866.73,6.4
426187.94,9053873.93,5.9
426187.62,9053878.98,3.8
426185.42,9053884.57,3.2
426197.59,9053351.5,2
426184.85,9053345.56,2
426192.31,9053348.99,2
426179.42,9053342.75,1.9
426157.99,9053333.68,1.9
426174.42,9053340.17,1.9
426166.36,9053336.58,1.9
426151.24,9053331.54,2.2
426134.1,9053325.65,2.1
426146.05,9053329.85,2
426138.89,9053327.36,2
426127.56,9053308.87,1.8
426128.74,9053303.72,1.6
426129.7,9053296.82,1.6
426130.49,9053291.38,1.4
426131.29,9053286.03,1.2
426132.36,9053280.89,1.2
426133.3,9053275.35,1.1
426108.52,9053552.93,4.6
426104.9,9053590.31,4.5
426108.55,9053542.36,4.5
426108.46,9053547.84,4.5
426106.72,9053573.6,4.4
426109.14,9053530.67,4.4
426105.47,9053585.27,4.4
426107.65,9053566.46,4.4
426109.69,9053525.57,4.3
426108.17,9053560.79,4.3
426110.59,9053519.6,4.3
426108.72,9053537.36,4.3
426111.72,9053512.78,4.3
426104,9053600.9,4.3
426106.09,9053579.5,4.2
426113.21,9053500.91,4.2
426103.11,9053621.65,4.1
426112.51,9053506.96,4.1
426104.43,9053595.74,4
426103.61,9053606.15,4
426113.48,9053494.26,4
426103.4,9053613.04,4
426102.89,9053637.07,4
426113.31,9053488.15,3.9
426102.85,9053646.49,3.9
426116.6,9053420.76,3.9
426115.91,9053425.87,3.9
426102.87,9053631.05,3.8
426113.06,9053483.05,3.8
426112.57,9053465.02,3.8
426112.57,9053470.22,3.8
426112.81,9053477.19,3.7
426117.75,9053413.7,3.7
426102.55,9053654,3.7
426119.64,9053403.42,3.7
426114.98,9053432.77,3.7
426114.36,9053437.81,3.6
426118.73,9053408.79,3.6
426112.73,9053458.61,3.6
426113.54,9053445.84,3.6
426120.62,9053396.75,3.5
426113.09,9053451.77,3.5
426121.68,9053385.7,3.4
426121.19,9053391.26,3.3
426122.12,9053380.7,3.2
426122.61,9053372.68,3
426122.7,9053367.62,2.8
426122.78,9053361.1,2.8
426122.88,9053356,2.7
426123.22,9053348.64,2.6
426123.62,9053343.59,2.5
426124.25,9053334.84,2.4
426108.77,9053316.23,2.2
426124.85,9053327.91,2.1
426103.28,9053314.36,2.1
426121.3,9053320.82,2.1
426113.54,9053317.91,2
426126.69,9053322.91,2
426126.57,9053313.78,2
426093.34,9053858.01,8.2
426095.47,9053847.35,7.9
426095.45,9053838.6,7.6
426094.81,9053853.18,7.6
426090.56,9053863.78,7.5
426095.17,9053832.86,7.2
426094.45,9053824.63,7.2
426094.05,9053818.23,7.1
426094.71,9053802.56,6.9
426094.16,9053811.33,6.9
426088,9053869.36,6.9
426095.35,9053794.42,6.8
426096.21,9053787.05,6.5
426096.86,9053779.38,6.4
426086.97,9053874.47,6.4
426097.1,9053774.16,6
426097.36,9053767.2,5.7
426097.47,9053762.17,5.6
426097.88,9053753.29,5.5
426098.14,9053747.81,5.3
426098.51,9053742.69,5.1
426087.79,9053879.46,5
426098.76,9053737.57,4.9
426098.97,9053732.5,4.6
426098.75,9053718.19,4.4
426099.01,9053724.27,4.4
426098.22,9053709.52,4.2
426098.15,9053703.08,4.1
426091.74,9053882.57,4
426098.2,9053697.97,3.9
426101.2,9053669.7,3.8
426098.44,9053692.06,3.8
426099.31,9053684.23,3.8
426101.88,9053662.09,3.8
426100.36,9053676.39,3.7
426085.99,9053309.02,2.1
426077.75,9053306.35,2.1
426097.62,9053312.54,2.1
426092.33,9053310.91,2.1
426054.51,9053300.2,2.3
426059.41,9053301.37,2.2
426070.93,9053304.12,2.2
426066.03,9053302.88,2.2
426027.53,9053305.26,2.7
426027.88,9053299.52,2.6
426043.02,9053297.53,2.5
426038.1,9053296.46,2.4
426031.41,9053295.01,2.4
426027.78,9053290.83,2.4
426048.82,9053298.83,2.2
426028.5,9053249.46,1.6
426032.85,9053245.07,1.5
426038.63,9053244.14,1.2
426002.12,9053732.7,4.6
426003.18,9053724.25,4.5
426003.88,9053717.36,4.3
426010.07,9053567.78,4.3
426010.64,9053518.31,4.2
426010.2,9053562.12,4.2
426010.2,9053556.86,4.1
426012.39,9053503.62,4.1
426011.2,9053512.37,4.1
426004.23,9053711.06,4.1
426010.18,9053574.59,4
426010.33,9053524.65,4
426010.26,9053531.64,4
426015.07,9053453.76,4
426010.14,9053549.92,4
426013.91,9053491.78,3.9
426014.29,9053484.98,3.9
426004.29,9053703.51,3.9
426014.92,9053458.83,3.9
426005.11,9053685.53,3.9
426010.08,9053582.33,3.9
426014.65,9053464.03,3.9
426014.37,9053478.84,3.9
426014.42,9053471.8,3.9
426009.96,9053591.84,3.9
426004.48,9053694.28,3.8
426010.4,9053539.92,3.8
426009.7,9053597.15,3.8
426013.15,9053498.67,3.8
426015.71,9053439.1,3.8
426015.26,9053447.92,3.8
426009.67,9053619.77,3.7
426016.16,9053433.37,3.7
426009.4,9053626.51,3.7
426005.47,9053677.77,3.6
426016.89,9053427.21,3.6
426018.44,9053415.54,3.6
426009.32,9053631.97,3.6
426009.46,9053603.38,3.6
426017.53,9053422.23,3.6
426006.23,9053671.25,3.6
426009.15,9053650.07,3.5
426007.21,9053666.24,3.5
426008.36,9053657.08,3.4
426009.44,9053608.55,3.4
426023.69,9053338.83,3.4
426019.34,9053408.15,3.4
426009.31,9053637.04,3.3
426024.88,9053329.14,3.3
426019.91,9053402.8,3.3
426009.62,9053614.67,3.3
426023.04,9053345.35,3.3
426022.64,9053350.6,3.3
426009.34,9053643.85,3.3
426025.54,9053322.77,3.2
426020.65,9053396.36,3.1
426026.21,9053316.27,3.1
426022.26,9053355.7,2.9
426026.86,9053310.99,2.9
426021.23,9053388.4,2.9
426021.75,9053366.18,2.8
426021.49,9053381.89,2.8
426021.64,9053371.77,2.7
426005.37,9053287.95,2.7
426021.96,9053360.87,2.7
426011.93,9053289.94,2.6
426019.78,9053292.17,2.6
426027.11,9053282.71,2.2
426026.47,9053273.61,2.1
426026.18,9053268.53,1.8
426026.32,9053259.69,1.7
426026.84,9053254.49,1.6
425988.89,9053843.49,8.2
425989.61,9053837.95,8.2
425988.24,9053848.58,8.2
425987.08,9053856.48,8
425990.32,9053832.99,7.8
425991.61,9053826.46,7.7
425992.76,9053820.95,7.5
425993.85,9053815.44,7.3
425994.79,9053809.7,6.9
425986.47,9053861.52,6.8
425995.45,9053804.59,6.7
425996.12,9053797.99,6.4
425996.59,9053792.11,6.2
425997.08,9053783.88,6.1
425997.45,9053777.91,6
425997.93,9053772.72,5.8
425998.45,9053767.14,5.7
425998.91,9053762,5.5
425985.43,9053866.46,5.3
425999.58,9053755.56,5.3
426000.98,9053743.33,5.1
426000.27,9053749.95,5.1
426001.58,9053737.83,4.9
425984.41,9053283.98,3
425989.99,9053284.79,2.8
425997.75,9053286.1,2.8
425963.03,9053280.46,3.3
425975.76,9053282.68,3.2
425970.45,9053281.9,3.1
425957.51,9053279.21,3.1
425928.52,9053245.7,3.5
425928.3,9053238.14,3.5
425928.25,9053233.14,3.3
425928.69,9053255.42,3.2
425928.24,9053228.06,3.1
425928.33,9053223.03,3
425949.79,9053277.33,2.8
425928.41,9053260.48,2.8
425927.73,9053266.46,2.7
425928.43,9053217.98,2.7
425944.92,9053276.01,2.7
425938.52,9053274.42,2.6
425932.48,9053272.95,2.6
425929.87,9053202.56,2.5
425928.61,9053212.76,2.5
425929.19,9053207.66,2.4
425930.53,9053197.51,2.2
425932.16,9053185.66,2
425931.25,9053192.5,2
425930.48,9053179.11,1.9
425911.12,9053474.65,4.4
425911.11,9053469.53,4.4
425911.57,9053482.74,4.4
425910.47,9053503.71,4.4
425911.47,9053489.21,4.4
425910.93,9053498.41,4.3
425911.29,9053464.48,4.2
425909.62,9053511.11,4.2
425911.66,9053458.9,4
425904.52,9053563.52,4
425908.49,9053520.93,3.9
425906.4,9053532.26,3.9
425903.79,9053578.79,3.9
425904.48,9053556.7,3.9
425902.77,9053585.26,3.8
425905.27,9053537.49,3.8
425907.67,9053526.86,3.8
425904.65,9053550.92,3.7
425912.15,9053453.7,3.7
425904.92,9053543.42,3.6
425912.95,9053434.2,3.6
425913.74,9053415.71,3.6
425912.53,9053448.71,3.6
425913.49,9053421.57,3.5
425913.22,9053427.36,3.5
425914.5,9053405.1,3.5
425914.81,9053399.44,3.5
425915.31,9053394.3,3.4
425914.09,9053410.29,3.3
425904.36,9053572.89,3.3
425916.27,9053386.44,3.3
425912.8,9053439.24,3.2
425918.83,9053368.65,3.1
425917.4,9053378.33,3
425919.72,9053363.41,3
425922.58,9053347.89,2.9
425924.16,9053334.65,2.9
425923.56,9053340.96,2.9
425921.46,9053354.42,2.8
425918.96,9053268.79,2.8
425924.57,9053325.94,2.8
425924.29,9053314.22,2.8
425924.51,9053319.58,2.7
425926.28,9053276.31,2.7
425907.44,9053265.08,2.7
425925.42,9053282.82,2.6
425914.08,9053267.17,2.6
425923.9,9053270.37,2.6
425924.13,9053297.69,2.6
425924.49,9053292.66,2.5
425924.17,9053309.16,2.5
425924.07,9053303.44,2.5
425892.1,9053845.1,7.4
425892.42,9053838.46,7.1
425892.76,9053833.38,7.1
425893.08,9053828.36,6.9
425893.43,9053823.05,6.5
425891.74,9053858.4,6.3
425896.91,9053773.68,6.3
425891.78,9053851.12,6.2
425893.83,9053817.35,6.1
425895.68,9053792.06,6.1
425894.52,9053807.7,6.1
425897.56,9053768.66,6.1
425896.29,9053780.35,6.1
425896.03,9053785.43,6
425898.41,9053763.62,6
425899.24,9053758.58,5.9
425900.21,9053753.1,5.6
425901.07,9053747.37,5.4
425895.27,9053797.72,5.3
425901.64,9053739.5,5.1
425901.25,9053731.15,4.8
425899.16,9053713.74,4.6
425900.59,9053725.24,4.5
425898.74,9053708.7,4.5
425898.11,9053703.64,4.3
425899.78,9053719.76,4.3
425899.02,9053613.65,4.2
425895.4,9053689.54,4.2
425897.22,9053698.51,4
425898.74,9053630.02,4
425900.03,9053604.66,4
425894.55,9053684.2,3.9
425901.91,9053590.29,3.9
425898.99,9053624.64,3.9
425897.31,9053643.5,3.9
425898.93,9053618.78,3.9
425894.21,9053676.6,3.8
425895.59,9053657.95,3.8
425901.19,9053595.91,3.7
425896.76,9053648.68,3.7
425898.01,9053638.07,3.7
425894.79,9053667.5,3.5
425893.54,9053863.1,3.3
425878.53,9053257.82,2.8
425893.51,9053261.44,2.8
425883.43,9053258.91,2.6
425888.61,9053260.22,2.6
425898.5,9053262.75,2.6
425898.92,9053865.38,1.8
425863.31,9053254.06,2.8
425857.48,9053252.24,2.8
425869.72,9053255.81,2.7
425827.96,9053403.55,3.7
425827.7,9053345.65,3.6
425828.52,9053409.15,3.5
425827.28,9053398.47,3.5
425828.3,9053340.08,3.4
425827.62,9053423.68,3.4
425827.17,9053351.42,3.4
425828.71,9053334.81,3.4
425828.53,9053414.4,3.3
425829.17,9053328.61,3.2
425829.96,9053320.1,3.2
425830.39,9053311.19,3.2
425834.96,9053220.26,3.1
425830.67,9053304.67,3
425835.03,9053227.11,3
425831.85,9053289.86,3
425835.03,9053215.22,3
425852.09,9053250.6,3
425832.5,9053284.49,2.9
425835.09,9053209.71,2.9
425835.19,9053232.31,2.8
425831.38,9053295.54,2.8
425835.44,9053237.5,2.7
425847.1,9053249.02,2.7
425833.21,9053278.28,2.7
425835.68,9053242.58,2.6
425842.19,9053247.61,2.6
425834.84,9053263.81,2.6
425834.17,9053269.88,2.6
425835.01,9053204.65,2.6
425835.66,9053250.36,2.5
425835.52,9053255.37,2.5
425834.79,9053199.56,2.4
425830.9,9053244.69,2.4
425834.36,9053194.03,2.2
425833.83,9053189,2
425833.37,9053183.98,1.9
425834.51,9053178.66,1.7
425839.3,9053176.34,1.6
425809.51,9053557.51,5.5
425810.62,9053549.45,5.4
425811.45,9053539.44,5.4
425808.44,9053562.43,5.4
425811.06,9053544.46,5.3
425807.41,9053567.6,5.2
425805.06,9053582.81,5.1
425805.98,9053575,5.1
425802.42,9053609.4,5
425812.06,9053532.95,4.9
425804.58,9053588.08,4.9
425803.27,9053600.14,4.9
425803.88,9053594.81,4.8
425812.47,9053526.4,4.5
425813.27,9053519.46,4.4
425814.56,9053511.47,4.3
425815.2,9053506.47,4.2
425817.35,9053487.8,4.1
425816.18,9053497.64,4.1
425818.19,9053480.58,3.9
425819.04,9053474.53,3.9
425819.92,9053467.93,3.9
425820.65,9053462.82,3.7
425823.63,9053445.9,3.6
425821.97,9053455.64,3.6
425825.66,9053378.77,3.5
425826.67,9053357.78,3.5
425826.11,9053387.99,3.4
425825.96,9053367.03,3.3
425825.65,9053373.38,3.3
425825.85,9053434.18,3.3
425826.72,9053429.01,3.2
425824.58,9053440.95,3.2
425825.64,9053243.38,2.5
425813.91,9053239.85,2.5
425806.24,9053237.63,2.5
425819.68,9053241.67,2.4
425788.56,9053783.52,6.4
425789.08,9053791.62,6.3
425787.5,9053768.71,6.3
425788.34,9053748.16,6.3
425787.4,9053755.02,6.3
425787.16,9053760.51,6.3
425790.09,9053740.78,6.2
425789.2,9053796.75,6.1
425787.96,9053776.57,6
425789.2,9053801.81,5.9
425791.33,9053735.44,5.7
425792.56,9053729.19,5.6
425795.5,9053711.31,5.6
425793.75,9053722.16,5.6
425794.64,9053716.61,5.6
425796.19,9053706.25,5.5
425789.06,9053806.85,5.5
425788.83,9053812.07,5.3
425796.84,9053701.25,5.2
425802.02,9053614.98,5.2
425801.4,9053621.24,5.1
425788.52,9053817.14,5.1
425800.36,9053640.11,5.1
425797.47,9053695.78,5
425800.05,9053645.15,5
425800.69,9053633.51,4.9
425797.99,9053685.54,4.9
425801.07,9053626.4,4.9
425788.2,9053822.23,4.8
425797.73,9053690.68,4.8
425799.5,9053652.03,4.8
425798.73,9053672.45,4.8
425798.48,9053678.02,4.8
425799.05,9053667.37,4.7
425787.94,9053827.59,4.6
425799.37,9053658.62,4.4
425787.66,9053832.64,4.3
425787.33,9053837.7,4.1
425786.99,9053842.85,3.7
425786.7,9053847.88,3.5
425786.5,9053853.13,3.2
425786.42,9053859.1,2.8
425787.1,9053864.87,2.8
425779.07,9053232.6,2.5
425786.13,9053233.76,2.5
425792.91,9053234.83,2.5
425798.39,9053235.75,2.5
425757.41,9053230.14,2.7
425774.07,9053231.84,2.6
425752.43,9053229.69,2.6
425768.16,9053231.13,2.6
425763.17,9053230.67,2.5
425727.74,9053251.87,3
425727.46,9053257.42,3
425728.04,9053246.69,2.9
425728.36,9053240.78,2.9
425728.64,9053233.87,2.8
425747.35,9053229.34,2.8
425729.09,9053224.28,2.7
425742.16,9053229.03,2.7
425731.82,9053168.34,2.7
425729.36,9053218.92,2.7
425737.14,9053228.72,2.6
425732.08,9053181.38,2.6
425732.06,9053228.5,2.6
425731.42,9053158.62,2.6
425732.07,9053173.68,2.6
425731.39,9053191.39,2.5
425731.45,9053153.36,2.5
425729.64,9053213.84,2.5
425730.05,9053206.54,2.5
425730.49,9053200.04,2.4
425731.64,9053148.33,2.4
425731.7,9053142.65,2.1
425731.69,9053136.75,1.9
425731.64,9053131.67,1.6
425705.24,9053624.78,5.7
425707.83,9053523.92,5.7
425707.19,9053529.55,5.7
425705.11,9053633.36,5.6
425706.92,9053579.51,5.6
425702.99,9053655.4,5.6
425704.87,9053640.52,5.6
425705.01,9053617.91,5.6
425705.34,9053598.8,5.5
425705.21,9053609.85,5.5
425707.28,9053574.1,5.5
425705.35,9053603.9,5.5
425704.43,9053646.34,5.5
425705.94,9053589.18,5.4
425708.82,9053517.79,5.4
425706.97,9053535.21,5.4
425707.34,9053568.29,5.4
425707.01,9053540.33,5.3
425707.31,9053561.81,5.2
425707.15,9053545.5,5.2
425709.75,9053512.81,5.2
425710.55,9053507.78,5.1
425707.46,9053552.08,5.1
425711.42,9053502.64,5
425711.88,9053497.61,4.7
425712.7,9053486.19,4.7
425712.32,9053491.54,4.7
425713.05,9053481.2,4.3
425714.59,9053466.9,4.2
425713.53,9053475.15,4.1
425715.5,9053455.13,4
425716.11,9053445.97,4
425714.93,9053461.82,3.9
425716.43,9053439.98,3.9
425717.44,9053429.52,3.8
425719.2,9053412.95,3.8
425719.91,9053407.87,3.8
425717.93,9053424.47,3.7
425716.86,9053434.95,3.7
425722.86,9053323.23,3.7
425722.94,9053328.53,3.7
425718.37,9053419.4,3.6
425722.85,9053341.36,3.6
425722.77,9053336.18,3.6
425722.19,9053389,3.6
425722.53,9053381.04,3.6
425722.7,9053374.61,3.6
425721.12,9053398.33,3.6
425722.98,9053311.03,3.6
425722.95,9053317.97,3.6
425723.12,9053301.12,3.5
425722.8,9053361.65,3.5
425724.42,9053283.14,3.5
425723.27,9053296.05,3.5
425722.73,9053369.59,3.5
425723.7,9053290.45,3.5
425723.1,9053347.54,3.4
425722.91,9053356.54,3.4
425725.05,9053278.15,3.4
425725.73,9053273.11,3.3
425726.42,9053268.13,3.2
425727.03,9053263.07,3.2
425710.55,9053226.14,2.9
425705.12,9053225.61,2.7
425715.64,9053226.7,2.7
425723.71,9053227.8,2.6
425704.66,9053866.71,1.5
425700.01,9053705.56,6
425700.27,9053697.22,6
425699.76,9053687.34,5.9
425699.63,9053710.8,5.9
425699.14,9053681.27,5.8
425698.82,9053675.04,5.7
425699.22,9053715.81,5.7
425697.82,9053727.26,5.6
425699.66,9053668.73,5.6
425701.53,9053661.39,5.6
425698.66,9053720.79,5.6
425696.06,9053736.48,5.6
425694.7,9053742.17,5.5
425693.12,9053748.95,5.4
425691.48,9053756.11,5.3
425689.97,9053763.51,5.3
425689.08,9053768.62,5.2
425688.38,9053773.78,5
425687.72,9053779.75,4.9
425687.45,9053784.78,4.8
425687.57,9053789.79,4.5
425688.24,9053794.86,4.2
425690.73,9053804.9,4.1
425689.47,9053799.94,4
425692.49,9053812.3,3.8
425693.28,9053817.3,3.4
425693.58,9053822.34,2.9
425685.55,9053221.94,2.9
425691.01,9053223.32,2.9
425697.58,9053224.53,2.8
425693.55,9053827.4,2.6
425693.27,9053832.99,2.3
425694.34,9053850.73,2.3
425692.94,9053838.55,2.2
425693.27,9053845.8,2.1
425696.18,9053855.73,2
425698.62,9053860.16,2
425671.07,9053219.08,2.9
425676.7,9053219.92,2.8
425665.67,9053218.25,2.8
424453.27,9054515.79,2.3
424460.69,9054510.29,2
424466.64,9054506.86,1.7
424471.45,9054505.33,1.5
424449.46,9054519.21,2.2
424353.47,9054475.52,2
424354.14,9054470.5,1.6
424355.64,9054465.71,1.4
424362.08,9054466.54,1.2
424328.13,9054516.1,5.1
424331.98,9054512.42,4.7
424335.44,9054508.76,4.2
424338.72,9054504.78,3.9
424341.65,9054500.66,3.6
424344.47,9054496.23,3.3
424347.33,9054491.39,3
424349.79,9054486.83,2.7
424351.74,9054482.22,2.2
424324.35,9054519.46,5.5
424255.42,9054436.73,2.2
424259.73,9054432.55,2.1
424263.26,9054428.91,2
424267.39,9054425.91,1.7
424230.06,9054466.45,4.8
424235.22,9054460.18,4.5
424238.37,9054455.92,4.1
424241.32,9054451.78,3.6
424244.33,9054447.68,3.2
424247.53,9054443.8,2.8
424251.23,9054440.35,2.3
424204.96,9054488.83,6.7
424208.92,9054485.26,6.4
424213.13,9054481.43,5.9
424217.02,9054478.2,5.4
424221.03,9054475,5.1
424224.84,9054471.69,4.8
424183.1,9054508.84,8.1
424186.92,9054505.6,7.8
424177.79,9054513.53,7.3
424190.66,9054502.16,7.3
424194.31,9054498.56,7.2
424199.45,9054493.85,7.1
424174.06,9054517.08,6.9
424127.75,9054460.24,6.2
424127.59,9054465.24,6.1
424128.03,9054452.52,6.1
424128.34,9054446.55,6
424128.66,9054441.32,5.8
424127.53,9054471.44,5.8
424127.63,9054476.62,5.6
424129.17,9054435.26,5.5
424127.71,9054483.12,5.4
424127.72,9054492.29,5.4
424127.61,9054497.73,5.3
424129.73,9054430.27,5.2
424130.67,9054423.14,5.2
424131.25,9054418.1,5
424131.76,9054413.05,4.8
424132.09,9054408.05,4.6
424132.34,9054401.93,4.4
424132.67,9054396.2,4.2
424133.23,9054391.18,4
424134.47,9054385.93,3.7
424136.05,9054380.89,3.3
424137.73,9054376.14,2.8
424139.52,9054371.44,2.6
424141.25,9054366.53,2.3
424142.43,9054361.63,2.1
424142.32,9054356.39,1.9
424140.11,9054351.88,1.8
424126.29,9054511.29,6.1
424127,9054505.95,5.9
424028.28,9054478.2,8
424028.64,9054471.16,7.9
424027.7,9054485.94,7.9
424028.91,9054465.77,7.7
424029.22,9054460.74,7.5
424029.54,9054455.56,7.3
424029.77,9054450.51,7.1
424030.12,9054445.44,6.9
424030.7,9054440.07,6.8
424031.37,9054434.01,6.6
424031.85,9054428.86,6.3
424032.19,9054423.23,6
424033.32,9054409.83,5.9
424032.84,9054415.28,5.9
424034.82,9054383.32,5.7
424033.41,9054401.01,5.6
424034.37,9054388.48,5.6
424033.78,9054394.47,5.6
424035.33,9054377.05,5.4
424035.73,9054372.05,5.1
424037.14,9054303.24,4.9
424038.11,9054312.84,4.9
424036.04,9054366.92,4.8
424036.4,9054360.52,4.7
424036.7,9054355.14,4.3
424036.64,9054298.02,4
424037.21,9054348.55,4
424038.82,9054317.87,3.8
424038.07,9054340.52,3.8
424039.46,9054322.95,3.7
424038.87,9054334.9,3.7
424039.54,9054329.49,3.7
424036.28,9054293,3.1
424036.18,9054287.96,2.6
424036.03,9054282.64,2.1
424035.61,9054277.53,1.9
424026.43,9054500.29,8.5
424026.08,9054505.86,8.4
424026.05,9054511.09,8.1
424027.02,9054494.22,8
424026.12,9054516.11,7.7
423929.6,9054414.21,6.6
423935.25,9054354.45,6.6
423934.54,9054359.45,6.6
423934.02,9054364.78,6.5
423935.88,9054349.47,6.5
423931.02,9054409.31,6.4
423933.72,9054370.94,6.4
423933.67,9054377.1,6.4
423932.53,9054403.2,6.4
423933.55,9054397.96,6.3
423936.32,9054344.23,6.2
423934.08,9054382.09,6.2
423934.17,9054392.92,6.2
423934.39,9054387.24,6.1
423936.56,9054339.18,6
423936.63,9054331.67,5.1
423936.36,9054326.59,4.8
423935.86,9054321.42,4.8
423934.76,9054313.41,4.7
423933.77,9054307.01,4.4
423932.6,9054299.11,4.1
423930.24,9054282.49,4.1
423931.14,9054288.85,4
423931.84,9054293.88,3.9
423927.92,9054231.5,3.7
423929.57,9054277.44,3.6
423928.22,9054268.49,3.1
423931.33,9054226.81,3
423927.58,9054263.51,2.9
423935.75,9054224.1,2.9
423927.21,9054258.26,2.7
423940.78,9054223.48,2.4
423945.57,9054225.04,2
423912.67,9054517.21,8
423918.38,9054491.17,7.8
423923.53,9054463.37,7.7
423917.49,9054500.94,7.6
423922.91,9054468.38,7.6
423914.51,9054512.42,7.6
423918.99,9054485.64,7.5
423916.02,9054507.25,7.5
423920.16,9054480.73,7.5
423922,9054473.93,7.5
423924.12,9054457.5,7.2
423924.46,9054452.4,6.8
423924.68,9054447.24,6.6
423927.09,9054423.85,6.5
423924.79,9054438.41,6.5
423925.18,9054433.14,6.4
423926.52,9054236.84,2.5
423926.91,9054252.92,2.5
423926.46,9054247.05,2.5
423926.29,9054241.93,2.4
423833.27,9054403.2,8.6
423833.7,9054394.83,8.6
423833.61,9054411.31,8.5
423834.23,9054417.62,8.5
423834.29,9054387.41,8.5
423834.86,9054382.36,8.3
423835.21,9054427.54,8.3
423835.92,9054376.31,8.3
423835.53,9054435.26,8.2
423835.87,9054440.38,8
423836.12,9054445.39,7.8
423833.76,9054517.59,7.7
423836.63,9054481.03,7.6
423836.2,9054450.61,7.5
423836.54,9054489.05,7.5
423834.2,9054512.57,7.5
423836.65,9054461.86,7.5
423836.9,9054467.57,7.3
423834.85,9054507.5,7.3
423836.49,9054494.32,7.3
423836.78,9054371.36,7.2
423836.73,9054476.01,7.2
423835.89,9054500.65,7.1
423836.35,9054456.54,7.1
423837.33,9054366.3,6.6
423837.76,9054358.43,6.5
423837.46,9054340.9,6.4
423837.86,9054351.66,6.4
423837.13,9054333.38,6.1
423837.63,9054346.61,6.1
423836.88,9054328.29,6
423836.67,9054317.15,6
423836.77,9054322.84,6
423836.38,9054308.86,5.9
423836.1,9054303.52,5.6
423835.28,9054292.97,5.5
423835.75,9054298.43,5.4
423834.83,9054287.75,5.4
423833.95,9054278.46,5.1
423835.17,9054250.33,5.1
423833.68,9054273.35,5
423834.34,9054257.96,5
423835.74,9054245.25,5
423836.4,9054239.87,4.9
423833.67,9054268.17,4.8
423837.15,9054234.92,4.8
423833.9,9054263.12,4.7
423838.05,9054229.84,4.6
423839.13,9054224.62,4.2
423840.48,9054218.99,4
423841.55,9054214.1,3.6
423842.51,9054208.55,3.4
423843.2,9054203.53,3.2
423843.59,9054198.28,3
423843.78,9054193.23,2.9
423843.88,9054187.5,2.2
423843.83,9054182.43,1.6
423843.62,9054177.33,1.5
423843.15,9054170.39,1.4
423756.89,9054097.84,1.2
423738.63,9054388.02,7.5
423737.1,9054396.65,7.5
423730.34,9054419.57,7.4
423732.43,9054413.17,7.4
423735.47,9054340.96,7.4
423735.61,9054402.7,7.3
423728.66,9054424.34,7.2
423733.93,9054408.23,7.2
423739.31,9054382.64,7.1
423734.27,9054335.52,6.8
423736.48,9054345.91,6.8
423728.65,9054279.43,6.7
423729.71,9054271.65,6.7
423730.91,9054261.45,6.5
423728.19,9054294.69,6.5
423729.45,9054308.22,6.5
423733.16,9054330.59,6.4
423730.8,9054318.12,6.4
423728.79,9054302.55,6.4
423730.34,9054266.45,6.4
423728.21,9054284.55,6.4
423731.63,9054323.26,6.3
423731.56,9054255.5,6.3
423728.07,9054289.67,6.2
423732.19,9054248.8,6.2
423737.51,9054351.5,6.2
423739.6,9054377.58,6.1
423738.27,9054356.9,5.9
423732.52,9054243.71,5.9
423739.42,9054370.42,5.8
423733.08,9054236.5,5.8
423738.95,9054363.18,5.8
423733.56,9054230.85,5.6
423734.02,9054225.54,5.3
423734.56,9054220.45,4.9
423735.14,9054215.32,4.7
423736.41,9054206.21,4.4
423737.16,9054201.14,4.1
423737.91,9054196.12,3.9
423738.92,9054190.15,3.7
423741.44,9054177.67,3.7
423739.94,9054184.8,3.7
423742.46,9054172.7,3.2
423743.41,9054167.72,2.9
423744.24,9054162.67,2.5
423744.89,9054157.69,2.4
423745.39,9054152.71,2.4
423751.46,9054096.12,2.3
423745.73,9054147.42,2.1
423745.66,9054102.72,1.9
423745.82,9054142.31,1.8
423745.66,9054136.21,1.5
423745.4,9054131.09,1.5
423744.71,9054117.6,1.3
423745.14,9054126.07,1.3
423744.54,9054110.59,1.2
423720.86,9054471.36,8.4
423720.68,9054476.49,8
423721.18,9054464.4,7.9
423720.49,9054481.76,7.8
423720.38,9054486.92,7.6
423720.67,9054492.66,7.5
423722.66,9054515.37,7.4
423721.12,9054497.65,7.4
423721.58,9054502.7,7.3
423722.15,9054509.6,7.2
423721.53,9054459.27,7
423726.86,9054429.79,6.9
423722.1,9054454.08,6.8
423722.8,9054449,6.7
423725.25,9054434.63,6.5
423723.41,9054443.91,6.5
423657.18,9054141.69,5.4
423658.18,9054136.77,5.3
423652.43,9054213.43,5.3
423659.33,9054131.61,5.2
423656.31,9054146.71,5.1
423652.81,9054208.44,5
423653.36,9054199.37,5
423655.55,9054151.66,4.9
423655.05,9054011.25,4.8
423653.62,9054194.31,4.7
423655.71,9054019.99,4.7
423653.79,9054189.24,4.6
423654.99,9054156.79,4.6
423660.46,9054126.69,4.5
423653.9,9054182.93,4.4
423654.59,9054161.82,4.4
423654.06,9054171.88,4.3
423654.26,9054166.88,4.3
423653.97,9054177.88,4.2
423656.23,9054025.06,4.2
423654.58,9054006.27,4.2
423659.72,9054053.68,4
423661.54,9054121.76,3.9
423659.48,9054046.1,3.9
423656.95,9054030.16,3.8
423659.72,9054058.83,3.8
423662.52,9054116.81,3.6
423657.81,9054035.19,3.6
423659.89,9054065.27,3.6
423658.89,9054041.05,3.5
423663.21,9054111.79,3.5
423660.4,9054070.29,3.3
423663.54,9054106.79,3.2
423661.11,9054075.35,3.2
423654.04,9054001.23,3.1
423663.47,9054101.52,3
423661.85,9054080.48,3
423663.19,9054096.52,2.8
423662.48,9054085.53,2.7
423662.95,9054090.98,2.7
423653.47,9053996.26,2.4
423653,9053991.22,2
423652.9,9053986.16,1.9
423653.16,9053979.61,1.9
423645.9,9054361.53,7.8
423646.01,9054373.3,7.7
423646.34,9054381.79,7.7
423645.87,9054367.9,7.5
423638.45,9054433.31,7.5
423638.13,9054441.48,7.4
423639.72,9054467.67,7.4
423642.48,9054403.04,7.3
423646.28,9054355.39,7.3
423644.18,9054396.52,7.3
423640.18,9054477.28,7.2
423641.34,9054408.54,7.2
423646.01,9054387.81,7.2
423639.3,9054421.85,7.2
423638.68,9054428.27,7.1
423634.78,9054498.91,7.1
423639.03,9054462.27,7.1
423638,9054446.57,7.1
423631.45,9054503.13,7.1
423638.08,9054453.13,7.1
423640.43,9054414.14,7
423639.01,9054487.39,7
423636.99,9054494.4,6.9
423639.84,9054482.3,6.8
423649.08,9054317.37,6.7
423646.74,9054350.29,6.5
423648.75,9054333.31,6.5
423649.17,9054326.36,6.4
423648.71,9054306.85,6.2
423647.3,9054345.14,6.2
423648.15,9054338.33,6.2
423648.95,9054312.26,6.2
423647.56,9054290.33,6.2
423645.54,9054256.3,6.1
423648.52,9054301.76,6.1
423648.16,9054296.22,6.1
423646.44,9054281.07,6
423645.13,9054266.04,6
423645.3,9054271.11,6
423645.77,9054276.1,5.9
423646.19,9054251.21,5.6
423647.82,9054243.21,5.5
423648.97,9054238.07,5.4
423650.23,9054230.93,5.3
423651.36,9054223.16,5.1
423626.92,9054507.64,7.2
423623.46,9054511.33,6.9
423622.47,9054516.27,2.6
425673.75,9053680.43,6
425668.63,9053679.51,5.9
425679.03,9053682.19,5.8
425656.52,9053678.35,6
425661.55,9053678.85,5.9
425649.81,9053676.94,5.9
425639.55,9053673.67,5.8
425644.93,9053675.66,5.7
425628.08,9053669.62,5.6
425617.97,9053668.2,5.5
425622.98,9053668.8,5.4
425612.92,9053303.56,3.6
425612.31,9053308.59,3.5
425613.71,9053298.6,3.4
425616.6,9053269.17,3.4
425616.31,9053278.16,3.3
425616.83,9053261.92,3.3
425617.28,9053252.91,3.3
425614.7,9053292.22,3.2
425615.58,9053286.73,3.2
425618.37,9053239.49,3.2
425617.84,9053245.64,3.1
425618.9,9053234.48,3
425619.43,9053227.78,2.9
425619.47,9053222.25,2.7
425619.37,9053217.11,2.6
425619.14,9053209.3,2.5
425618.97,9053204.18,2.3
425618.81,9053197.78,2.2
425618.55,9053190.29,1.9
425618.31,9053163.25,1.9
425618.23,9053184.8,1.9
425617.96,9053172.73,1.9
425618.86,9053156.71,1.8
425618.01,9053177.77,1.7
425619.2,9053150.83,1.6
425620.05,9053143.05,1.5
425620.79,9053136.08,1.4
425622.19,9053128.17,1.1
425589.9,9053692.49,6.1
425611.27,9053667.25,5.8
425590.15,9053687.36,5.7
425597.95,9053505.19,5.6
425588.21,9053702.25,5.5
425598.03,9053510.26,5.5
425590.25,9053681.73,5.4
425604.34,9053666.01,5.4
425590.39,9053676.29,5.4
425598.4,9053500.1,5.3
425598.18,9053518.63,5.3
425590.65,9053670.15,5.3
425599.44,9053529.64,5.2
425598.9,9053489.41,5.2
425599.69,9053537.48,5.2
425598.81,9053524.44,5.1
425598.99,9053548.25,5.1
425599.54,9053542.49,5.1
425598.15,9053555.09,5.1
425599.26,9053665.4,5.1
425598.91,9053494.42,5.1
425591.58,9053659.23,5.1
425598.44,9053470.79,5
425598.82,9053483.22,5
425598.84,9053454.74,5
425597.28,9053560.02,4.9
425591.04,9053664.43,4.9
425598.6,9053475.8,4.9
425598.35,9053464.84,4.9
425587.18,9053707.15,4.9
425592.14,9053654.09,4.8
425596.44,9053564.96,4.8
425598.43,9053459.8,4.8
425595.99,9053571.69,4.7
425595.91,9053576.82,4.7
425592.44,9053644.55,4.7
425591.33,9053617.83,4.6
425592.07,9053639.53,4.6
425595.76,9053582.52,4.6
425595.4,9053593.3,4.6
425595.84,9053588.05,4.6
425590.99,9053630.29,4.5
425601.1,9053430.65,4.5
425590.99,9053622.87,4.5
425593.08,9053606.23,4.4
425599.3,9053449.62,4.4
425600.3,9053437.55,4.4
425599.85,9053443.87,4.4
425594.52,9053599.26,4.4
425605.92,9053399.24,4.3
425604.48,9053407.87,4.3
425591.86,9053612.7,4.3
425602.48,9053421.94,4.3
425603.03,9053416.44,4.3
425606.63,9053393.54,4.2
425607.32,9053365.86,4.1
425607.74,9053346.12,3.9
425607.34,9053371.96,3.9
425609.38,9053336.89,3.8
425606.98,9053385.42,3.8
425607.39,9053351.26,3.8
425610.49,9053331.61,3.7
425607.26,9053356.62,3.7
425607.31,9053378.44,3.7
425611.77,9053320.65,3.5
425611.33,9053325.98,3.4
425611.88,9053314.13,3.3
425582.64,9053664.54,5.1
425577.62,9053664.09,5
425570.56,9053663.26,4.9
425586.05,9053712.31,4.2
425585.16,9053717.26,3.8
425584.19,9053722.54,3.5
425582.81,9053731.45,3.3
425581.93,9053740.38,3.2
425581.4,9053747.24,3.2
425580.93,9053752.37,3.1
425576.18,9053781.42,3
425577.98,9053771.55,2.9
425580.14,9053758.97,2.9
425578.97,9053766.34,2.9
425575.35,9053786.39,2.9
425574.28,9053794.06,2.9
425577.08,9053776.47,2.8
425573.93,9053799.75,2.8
425574.24,9053806.82,2.7
425574.73,9053812.13,2.4
425575.16,9053817.13,2.2
425575.34,9053822.27,2
425575.4,9053827.49,2
425575.08,9053844.76,1.8
425575.28,9053832.5,1.7
425575.07,9053837.87,1.6
425576.4,9053855.49,1.5
425575.34,9053849.77,1.3
425579.03,9053859.8,0.7
425561.05,9053662.35,4.7
425551.42,9053661.66,4.6
425541.89,9053661.01,4.5
425537.82,9053085.02,0.7
425537.39,9053091.34,0.6
425537.92,9053079.05,0.6
425536.88,9053660.39,4.8
425531.9,9053659.73,4.5
425517.9,9053657.61,4.5
425525.96,9053658.96,4.5
425512.82,9053656.68,4.4
425513.2,9053264.64,4
425515.9,9053249.23,3.9
425516.84,9053242.9,3.8
425514.18,9053258.99,3.8
425517.97,9053231.93,3.8
425519.44,9053217.42,3.8
425517.44,9053237.71,3.8
425519.86,9053212.06,3.7
425518.85,9053224.23,3.7
425520.26,9053207.05,3.6
425520.63,9053201.94,3.5
425521.04,9053194.3,3.4
425521.56,9053187.81,3.3
425522,9053182.74,3.1
425522.67,9053177.66,2.9
425523.75,9053171.41,2.5
425524.78,9053165.56,2
425525.9,9053158.81,1.6
425527.48,9053148.56,1.4
425526.75,9053153.81,1.4
425528.28,9053142.8,1.2
425528.97,9053134.81,1.1
425529.72,9053129.51,0.9
425535.28,9053106.8,0.9
425530.8,9053122.97,0.9
425532.24,9053116.53,0.8
425536.44,9053101.87,0.7
425533.65,9053111.72,0.7
425536.99,9053096.78,0.6
425531.39,9053066.39,0.6
425536.34,9053072.92,0.5
425503.29,9053498.57,5.6
425502.32,9053519.36,5.6
425502.95,9053510.16,5.6
425503.32,9053492.15,5.5
425503.44,9053485.59,5.5
425503.12,9053503.61,5.5
425503.56,9053474.58,5.4
425501.16,9053531.98,5.4
425504.55,9053341.76,5.3
425501.86,9053524.68,5.3
425498.52,9053549.94,5.3
425503.72,9053468.22,5.3
425504.21,9053347.75,5.2
425503.9,9053452.07,5.2
425500.57,9053536.95,5.2
425503.55,9053480.34,5.2
425497.05,9053557.79,5.2
425505.04,9053336.66,5.1
425507.37,9053317.97,5.1
425503.59,9053406.07,5.1
425503.76,9053460.2,5.1
425506.13,9053329.96,5.1
425499.39,9053544.62,5
425494.68,9053570.16,5
425507.71,9053312.84,5
425503.69,9053384.5,5
425503.95,9053373.88,4.9
425506.86,9053323.8,4.9
425503.8,9053411.2,4.9
425503.62,9053401.01,4.9
425493.99,9053575.23,4.9
425504.13,9053366.25,4.9
425504.33,9053434.88,4.9
425504.29,9053420.79,4.9
425495.65,9053564.49,4.9
425504.27,9053439.88,4.9
425503.86,9053357.49,4.8
425504.49,9053429.13,4.8
425503.86,9053379.37,4.7
425503.59,9053394.82,4.7
425492.46,9053588.6,4.7
425504.2,9053445.27,4.7
425491.68,9053593.71,4.7
425493.45,9053580.54,4.6
425503.71,9053389.5,4.6
425490.4,9053601.5,4.5
425508.1,9053307.53,4.5
425489.45,9053609.63,4.4
425490.28,9053649.68,4.3
425507.92,9053655.58,4.3
425509.32,9053293.54,4.3
425487.45,9053632.62,4.3
425488.89,9053615.16,4.3
425510.44,9053282.77,4.2
425508.9,9053298.91,4.2
425498.68,9053652.84,4.2
425509.7,9053288.51,4.1
425487.85,9053627.47,4.1
425488.37,9053620.18,4.1
425512.04,9053271.38,4
425511.23,9053277.78,3.9
425481.33,9053646.06,4.2
425486.94,9053638.42,4.2
425479.59,9053721.31,4.1
425486.34,9053646.18,4.1
425485.47,9053655.17,4
425475.17,9053644.12,4
425479.7,9053715.3,3.9
425479.42,9053726.47,3.9
425479.36,9053747.42,3.9
425464.67,9053641.71,3.9
425470.21,9053642.9,3.9
425484.54,9053664.87,3.8
425480.1,9053702.76,3.8
425479.34,9053731.59,3.8
425479.8,9053710.19,3.8
425483.92,9053669.85,3.7
425479.42,9053737.06,3.7
425479.37,9053742.3,3.7
425483.01,9053675.86,3.6
425480.43,9053697.7,3.6
425481.88,9053682.58,3.6
425480.91,9053692.66,3.6
425479.29,9053752.71,3.5
425479.09,9053758.19,3.5
425481.37,9053687.62,3.5
425478.84,9053763.42,3.2
425478.62,9053768.5,3
425476.32,9053794.51,2.8
425478.36,9053773.73,2.6
425476.87,9053789.36,2.5
425475.77,9053803.6,2.5
425475.77,9053809.31,2.4
425476,9053814.55,2.3
425476.17,9053819.59,2.1
425477.9,9053778.91,2
425475.94,9053824.6,2
425477.44,9053784.16,1.6
425475.85,9053829.93,1.5
425476.22,9053834.97,1.1
425475.64,9053840.56,0.8
425447.82,9053638.19,4
425459.59,9053640.82,4
425442.8,9053636.99,3.9
425452.95,9053639.34,3.9
425438,9053635.12,3.8
425412.58,9053308.37,5.4
425412.3,9053313.78,5.3
425412.8,9053303.35,5.2
425413.04,9053297.4,4.9
425413.34,9053290.68,4.7
425413.83,9053285.65,4.7
425414.58,9053275.59,4.6
425414.3,9053280.61,4.6
425415.22,9053268.47,4.6
425416.1,9053258.5,4.3
425416.31,9053253.2,4.2
425416.45,9053247.24,4
425416.09,9053625.54,3.9
425424.43,9053628.78,3.9
425431.38,9053631.79,3.8
425416.4,9053239.44,3.8
425416.21,9053230.83,3.7
425416.14,9053225.62,3.6
425416,9053220.44,3.5
425415.79,9053213.03,3.3
425415.64,9053195.19,3.3
425416.21,9053175.8,3.3
425416.58,9053165.81,3.3
425415.78,9053204.43,3.3
425415.6,9053189.88,3.3
425416.79,9053160.07,3.2
425415.85,9053182.72,3.2
425417.22,9053150.66,3
425417.53,9053145.36,2.8
425418.25,9053139.48,2.6
425419.11,9053134.41,2.5
425420.19,9053129.51,2.3
425422.62,9053118.41,2.2
425421.36,9053124.64,2.1
425424.16,9053110.61,2
425424.9,9053102.75,2
425425.34,9053096.38,1.8
425426.3,9053088.46,1.8
425428.03,9053079.02,1.6
425428.66,9053071.03,1.4
425429.3,9053061.57,1.3
425428.91,9053053.35,1.3
425430.32,9053029.38,1.2
425429.22,9053046.03,1.2
425432.17,9053019.87,1.2
425429.7,9053037.07,1.1
425400.32,9053502.8,6.5
425406.41,9053349.42,6.5
425401.5,9053493.06,6.5
425405.05,9053356.26,6.4
425400.07,9053469.23,6.4
425401.89,9053487.99,6.4
425401.29,9053477.95,6.4
425407.71,9053343.73,6.4
425400.01,9053507.81,6.3
425406.56,9053391.45,6.3
425406.27,9053386.08,6.2
425400.02,9053513.2,6.2
425407.11,9053396.56,6.2
425404.59,9053362,6.2
425403.69,9053430.69,6
425407.94,9053401.69,6
425401.52,9053448.05,6
425404.75,9053367.01,6
425400.54,9053518.2,6
425400.56,9053454.06,6
425400.07,9053459.12,6
425409.13,9053337.82,6
425405.9,9053380.9,5.9
425404.84,9053425.82,5.9
425402.18,9053443.02,5.9
425408.3,9053409.26,5.9
425402.73,9053436,5.9
425401.54,9053523.11,5.9
425407.84,9053414.35,5.8
425405.1,9053373.32,5.8
425400.02,9053464.17,5.8
425406.46,9053420.24,5.7
425402.56,9053528.03,5.6
425410.3,9053332.58,5.5
425411.05,9053327.62,5.4
425403.22,9053533.86,5.3
425403.34,9053542.31,5.2
425411.77,9053321.07,5.2
425403.1,9053548,5
425401.7,9053555.11,4.7
425400.34,9053560.19,4.6
425398.61,9053565.27,4.3
425396.83,9053570.98,4.2
425394.23,9053604.63,4.1
425387.85,9053612.9,4.1
425393.36,9053629.62,4
425409.01,9053622.88,3.9
425395.25,9053579.71,3.9
425393.71,9053613.3,3.9
425395.15,9053585.7,3.9
425394.59,9053599.11,3.9
425393.51,9053619.61,3.8
425395,9053591.71,3.8
425393.37,9053634.69,3.8
425404.36,9053620.9,3.8
425393.6,9053643.52,3.8
425398.42,9053618.45,3.7
425393.84,9053648.97,3.6
425394.25,9053656.19,3.5
425394.44,9053661.33,3.5
425389.97,9053706.18,3.5
425393.86,9053671.85,3.3
425394.26,9053666.78,3.3
425389,9053711.09,3.2
425393.21,9053678.1,3.2
425392.8,9053683.48,3.1
425392.35,9053688.54,3
425387.96,9053716.22,3
425391.21,9053698.99,2.8
425391.88,9053693.67,2.8
425383.44,9053610.11,3.7
425377.85,9053606.34,3.6
425373.57,9053603.67,3.5
425366.03,9053599.83,3.4
425372.53,9053806.25,3.2
425370.68,9053812.83,3.1
