455908.55,9080894.91,3.1
455913.82,9080891.4,2.7
455904.2,9080897.95,2.4
455918.14,9080888.67,2.2
455904.13,9080649.51,2.2
455916.45,9080522.74,2.1
455926.08,9080266.73,2.1
455919.86,9080270.17,2
455924.14,9080517.26,2
455911.41,9080274.88,1.9
455906.61,9080277.68,1.9
455912.39,9080525.73,1.9
455927.48,9080882.2,1.9
455922.36,9080885.87,1.9
455904.42,9080779.72,1.9
455906.36,9080530,1.8
455918.59,9080406.46,1.8
455912.47,9080774.49,1.7
455904.33,9080419.29,1.7
455924.38,9080635.7,1.7
455926.45,9080399.94,1.7
455908.17,9080415.92,1.6
455918.77,9080640.14,1.6
455912.03,9080412.28,1.5
455908.45,9080646.91,1.5
455913.65,9080643.71,1.5
455922.53,9080403.14,1.4
455910.47,9081010.98,1.4
455925.44,9080999.41,1.4
455914.01,9081007.28,1.3
455918.51,9081003.21,1.3
455906.87,9081014.92,1.3
455924.55,9081129.2,0.7
455916.43,9080771.36,0.4
455920.69,9081132.8,0.3
455921.94,9080766.98,0.3
455926.38,9080763.71,0.2
455916.38,9081135.43,-0.3
455880.76,9080143.03,3.2
455899.29,9080652.63,3
455902.31,9080132.04,3
455894.34,9080136.09,2.9
455889.8,9080138.38,2.9
455885.26,9080140.69,2.8
455889.12,9080659.58,2.5
455894.43,9080655.95,2.2
455899.25,9080535,2.2
455889.66,9080287.61,2.2
455893.79,9080539.08,2.1
455897.1,9080785.21,2
455900.1,9080900.98,2
455883.55,9080290.58,1.9
455902.1,9080280.5,1.8
455889.82,9080542.24,1.8
455897.59,9080425.12,1.8
455896.74,9080283.72,1.8
455882.45,9080796.31,1.7
455892.82,9080788.58,1.7
455884.98,9080662.5,1.7
455888.72,9080791.74,1.7
455891.15,9080907.91,1.7
455878.68,9080293.36,1.7
455895.81,9080904.28,1.6
455886.02,9080911.69,1.6
455893.66,9080428.22,1.5
455879.56,9080916.35,1.5
455880.9,9080665.56,1.5
455886.67,9080433.07,1.4
455885.47,9080545.49,1.4
455881.89,9080435.68,1.2
455902.79,9081018.55,1.1
455881.26,9080548.6,1
455894.53,9081022.24,1
455889.63,9081023.69,0.7
455884.85,9081025.49,0.2
455879.99,9081027.6,-0.4
455878.61,9081032.45,-1
455863.97,9080150.59,3.4
455858.74,9080152.22,3
455875.72,9080145.68,2.9
455870.55,9080148.01,2.8
455856.56,9080931.67,2.4
455853.27,9080813.8,1.9
455874.51,9080919.64,1.9
455854.79,9080565.89,1.9
455869.62,9080922.98,1.8
455871.04,9080802.44,1.7
455860.38,9080809.45,1.7
455864.97,9080926.05,1.7
455874.35,9080295.94,1.5
455859.19,9080563.35,1.5
455866.64,9080805.04,1.5
455860.79,9080928.81,1.5
455869.89,9080298.61,1.4
455877.88,9080799.14,1.4
455865.86,9080444.16,1.4
455861.02,9080446.56,1.4
455856.97,9080307.34,1.4
455856.41,9080449.11,1.3
455864.35,9080302.28,1.3
455874.58,9080670.01,1.3
455870.31,9080441.67,1.3
455868.3,9080674,1.3
455876.85,9080438.47,1.2
455864.01,9080676.63,1.1
455858.11,9080680.05,0.9
455853.74,9080682.7,0.8
455877.1,9080551.56,0.6
455864.53,9080560.36,0.5
455872.87,9080554.45,0.4
455868.75,9080557.52,0.1
455852.78,9080154.22,2.8
455848.12,9080156.29,2.7
455834.95,9080580.03,2.6
455843.49,9080158.67,2.4
455838.39,9080161.1,2.3
455833.88,9080163.74,2.1
455829.48,9080166.49,2.1
455848.61,9080815.63,1.6
455847.09,9080454.54,1.6
455851.39,9080935.03,1.5
455852.04,9080310.46,1.5
455852.03,9080451.64,1.4
455847.56,9080313,1.4
455839.21,9080577.16,1.4
455843.75,9080817.1,1.3
455850.41,9080568.89,1.3
455843.52,9080574.09,1.3
455842.49,9080315.79,1.2
455838.8,9080818.53,1.2
455842.56,9080457.13,1.1
455837.42,9080318.51,1
455833.82,9080820.37,1
455829.3,9080822.56,0.9
455832.84,9080320.85,0.9
455845.07,9080687.78,0.8
455836.57,9080691.83,0.8
455838.19,9080459.61,0.7
455829.4,9080464.01,0.6
455849.43,9080685.32,0.5
455831.32,9080695.26,0.4
455846.3,9080935.42,0.4
455819.15,9080468.37,3.2
455807.49,9080332.84,3.1
455818.72,9080173.5,2.7
455812.1,9080330.53,2.7
455827.09,9080585.36,2.3
455813.93,9080176.7,2.3
455810.89,9080472.77,2.3
455824.65,9080169.55,2.2
455809.08,9080179.78,1.9
455804.69,9080182.66,1.8
455822.95,9080588.28,1.7
455816.62,9080328.39,1.6
455824.7,9080466.11,1.6
455815.31,9080593.46,1.3
455806.74,9080475.7,1.1
455821.28,9080326.22,1
455824.88,9080825,0.8
455816.26,9080828.27,0.7
455825.94,9080324.13,0.7
455811.04,9080596.14,0.6
455811.52,9080830.08,0.6
455806.58,9080598.94,0.4
455807.56,9080833.21,0.1
455825.15,9080701.27,0
455807.24,9080722.57,-0.1
455811.31,9080718.2,-0.1
455821.88,9080705.09,-0.1
455818.64,9080709.25,-0.1
455815.26,9080713.52,-0.2
455807.04,9080838.19,-0.5
455788.43,9080489.22,4.3
455794.45,9080484.89,3.7
455800.51,9080336.62,3.4
455784.47,9080492.4,2.5
455796.44,9080339.63,2.5
455798.55,9080481.79,2.4
455790.68,9080192.08,2.2
455796.14,9080188.44,2.2
455786.31,9080194.72,2
455800.41,9080185.45,2
455781.88,9080197.27,1.6
455792.51,9080342.94,1.6
455780.41,9080495.85,1.3
455785.6,9080615.43,1.2
455791.17,9080610.41,1.1
455788.24,9080345.9,1.1
455802.68,9080478.7,1
455781.84,9080618.79,0.9
455777.97,9080621.97,0.8
455784.39,9080349.39,0.8
455795.09,9080607.26,0.7
455778.73,9080353.52,0.7
455802.42,9080601.77,0.1
455781.41,9080742.33,-0.1
455800.8,9080728.28,-0.2
455787.86,9080739.71,-0.3
455793.1,9080734.98,-0.4
455797.01,9080731.55,-0.4
455761.59,9080637.14,3.1
455757.23,9080639.82,2.5
455773.25,9080202.16,1.4
455753.74,9080515.59,1.4
455768.43,9080204.5,1.3
455768.29,9080630.51,1.3
455761.03,9080509.7,1.3
455761.99,9080207.21,1.2
455775.11,9080499.73,1.1
455757.29,9080209.34,1
455771.85,9080626.91,0.9
455769.88,9080359.23,0.6
455765.19,9080506.69,0.5
455757.96,9080365.47,0.4
455762.55,9080362.9,0.4
455770.86,9080502.73,0.4
455774.29,9080356.63,0.4
455752.7,9080641.98,1.9
455747.24,9080370.17,1.7
455740.36,9080373.11,1.4
455744.88,9080523.5,1.4
455746.75,9080644.26,1.4
455739.7,9080527.36,1.4
455748.68,9080520.17,1.3
455735.72,9080375.19,1.2
455735.39,9080530.16,1
455749.01,9080213.75,0.9
455730.83,9080377.35,0.9
455744.44,9080216.2,0.8
455729.41,9080223.79,0.7
455739.51,9080218.78,0.7
455752.01,9080368.42,0.6
455741.79,9080645.54,0.6
455733.89,9080221.46,0.6
455728.54,9080534.4,0.3
455736.78,9080646.81,-0.2
455703.52,9080390.65,4.4
455708.01,9080388.19,2.3
455721.73,9080381.59,1.2
455712.54,9080385.93,1.1
455712.15,9080546.05,1
455717.1,9080383.83,1
455724.77,9080226.23,0.6
455727.65,9080648.96,0.6
455710.24,9080233.31,0.6
455715.67,9080230.88,0.3
455720.25,9080228.63,0.2
455720.43,9080540.49,0.1
455720.17,9080654.44,-0.1
455707.68,9080548.47,-0.5
455724.31,9080537.31,-0.5
455702.97,9080550.41,-0.7
455698.44,9080393.62,3.1
455694.1,9080396.24,2.8
455689.68,9080398.69,1.4
455685.82,9080566.87,0.7
455693.19,9080557.31,0.6
455681.28,9080569.15,0.4
455689.73,9080563.49,0.4
455696.21,9080553.29,0
455685.19,9080401.11,-0.1
455702.2,9080237.5,-0.2
455688.62,9080245.66,-0.2
455697.59,9080240.15,-0.2
455692.95,9080242.91,-0.3
455678.25,9080573.38,-0.4
455684.15,9080248.13,-0.4
455680.88,9080403.71,-0.5
455679.46,9080250.37,-0.6
455669.56,9080411.64,1.5
455676.23,9080406.9,1
455653.67,9080424.11,1
455665.38,9080414.58,0.4
455661.37,9080417.94,0.2
455663.96,9080258.27,-0.3
455661.56,9080262.68,-0.4
455653.07,9080266.57,-0.6
455674.95,9080252.77,-0.6
455670,9080254.61,-0.8
455633.76,9080428.25,0
455638.82,9080427.69,-0.4
455648.99,9080426.1,-0.4
455636.04,9080271.84,-0.5
455646.66,9080268.53,-0.5
455641.02,9080269.73,-0.5
455643.78,9080426.93,-0.6
455614.55,9080430.24,0.8
455627.89,9080428.22,0.7
455621.32,9080428.2,0.6
455607.5,9080436.81,0.6
455605.76,9080290.22,0.5
455609.68,9080287.03,0.3
455621.55,9080278.57,0.2
455613.72,9080284.02,0.2
455627.87,9080275.51,-0.1
455605.38,9080441.36,-0.2
455606.68,9080446.2,-0.9
455597.36,9080295.53,-0.1
455592.68,9080298.24,-0.3
455588.26,9080300.97,-0.7
455584.15,9080303.97,-0.8
457237.41,9080856.74,8.6
457242.06,9080854.01,8
457246.56,9080851.14,4.9
457250.47,9080848.02,4.1
457254.73,9080844.47,2.8
457258.17,9080840.84,1.3
457259.86,9080835.96,-0.3
457233.16,9080859.41,8.3
457225,9080864.93,7.9
457215.82,9080871.93,7.6
457220.94,9080867.91,7.6
457213.96,9080753.94,4.1
457218.39,9080751.38,2.4
457223.2,9080749.8,1
457228.09,9080750.88,-0.8
457231.11,9080754.99,-1.1
457190.53,9080891.45,8.2
457194.7,9080888.49,7.7
457200.72,9080884.36,7.7
457208.56,9080878.01,7.6
457204.67,9080881.29,7.4
457199.78,9080765.26,7.3
457193.49,9080771.88,7.2
457203.56,9080761.96,6.9
457188.66,9080777,6.8
457207.72,9080758.53,6.3
457179.15,9080900.49,9
457174.15,9080904.14,8.9
457183.18,9080897.36,8.6
457170,9080906.93,8.4
457165.75,9080909.7,7.8
457178.59,9080785.58,7.8
457184.94,9080780.51,7.6
457174.41,9080788.37,7.4
457161.39,9080912.49,7.3
457168.99,9080791.48,7.3
457163.55,9080793.87,7.1
457164.9,9080663.08,3.3
457168.72,9080659.84,2.2
457172.09,9080656.06,0.6
457173.58,9080651.22,-1.1
457142.57,9080679.85,8.6
457137.49,9080683.14,8.6
457146.98,9080676.98,8.3
457150.28,9080799.05,7.7
457139.15,9080803.97,7.5
457143.7,9080801.83,7.4
457157.07,9080915.33,7.1
457151.31,9080919.13,6.9
457151.1,9080674.02,6.8
457154.99,9080797.19,6.5
457146.96,9080921.88,6.1
457139.14,9080926.87,6
457157.31,9080669.07,5.6
457129.08,9080689.01,8.7
457124.77,9080692.23,8.6
457119.58,9080696.31,8.6
457133.16,9080686.11,8.5
457112.97,9080701.34,8.4
457122.05,9080814.16,7.5
457113.66,9080821.06,7.4
457134.68,9080806.22,7.4
457128.41,9080809.73,7.4
457117.9,9080817.47,7.3
457115.71,9080943.82,6.7
457120.14,9080940.74,6.5
457111.45,9080946.86,6.3
457124.68,9080937.41,5.6
457133.16,9080931.18,5.3
457128.76,9080934.4,4.6
457115.56,9080581.02,3.6
457122.3,9080574.09,2.5
457126.99,9080572.22,-0.8
457095.83,9080835.15,8.2
457101.65,9080830.51,7.9
457087.14,9080719.65,7.9
457108.83,9080704.43,7.9
457094.23,9080715.17,7.9
457091.88,9080838.46,7.9
457104.33,9080707.76,7.8
457098.67,9080711.98,7.8
457105.72,9080827.38,7.7
457087.98,9080841.68,7.5
457109.76,9080824.2,7.4
457096.08,9080957.86,6.8
457107.32,9080949.83,6.2
457091.96,9080960.88,6.2
457100.16,9080954.96,5.7
457077.38,9080606.78,8.3
457070.84,9080731.13,8.2
457077.45,9080726.17,8
457066.3,9080734.44,8
457065.66,9080614.62,7.9
457081.58,9080723.21,7.8
457062.16,9080737.42,7.7
457084.02,9080844.78,7.1
457079.92,9080847.9,6.9
457073.12,9080609.61,6.8
457074,9080852.44,6.8
457069.87,9080855.47,6.7
457065.7,9080858.52,6.4
457085.73,9080965.3,6.2
457061.73,9080861.57,6.1
457070.68,9080975.89,6.1
457066.01,9080978.82,6.1
457075.35,9080972.77,5.8
457079.42,9080969.83,5.6
457064.69,9080492.54,5.5
457070.88,9080488.8,5
457074.75,9080485.56,2.6
457077.32,9080481.27,0.5
457052.95,9080500.71,8.6
457048.67,9080503.8,8.5
457044.62,9080506.85,8.4
457050.56,9080624.83,8.4
457037.64,9080632.23,8.2
457040.38,9080509.76,8.2
457059.16,9080619.11,8.1
457036.11,9080512.47,8
457054.99,9080621.96,7.9
457042.07,9080629.62,7.7
457057.93,9080740.47,7.2
457053.7,9080743.36,6.8
457043.94,9080749.43,6.3
457049.17,9080746.26,6.3
457058.53,9080496.88,6.3
457037.88,9080994.72,6.2
457045.3,9080990.14,6.2
457051.78,9080986.84,6.2
457038.49,9080752.78,6
457057.66,9080864.65,6
457056.47,9080984.47,6
457060.86,9080981.96,5.9
457051.85,9080868.66,5.8
457040,9080877.33,5.6
457046.9,9080872.05,5.5
457031.46,9080515.49,7.8
457026.92,9080640.57,7.7
457020.2,9080645.5,7.6
457011.51,9080529.04,7.5
457027.22,9080518.37,7.5
457018.31,9080524.19,7.5
457016.15,9080648.59,7.4
457023.04,9080521.13,7.3
457011.97,9080651.96,7.2
457012.06,9081012.96,7.1
457031.06,9080637.29,7
457034.19,9080755.49,7
457029.31,9081000.16,7
457020.03,9080410.65,6.6
457033.57,9080997.39,6.6
457021.98,9081005.46,6.5
457013.71,9080896.38,6.4
457016.14,9081009.83,6.4
457017.84,9080893.56,6.4
457022.09,9080890.65,5.9
457026.66,9080887.54,5.9
457011.94,9080773.59,5.9
457028.85,9080759.17,5.8
457024.87,9080407.71,5.8
457033.17,9080882.93,5.7
457015.98,9080770.09,5.5
457020,9080766.64,5.4
457023.93,9080763.18,5.3
457015.44,9080412.85,4.7
457030.33,9080405.66,4.5
457035.32,9080406.52,2.4
456997.27,9080423.37,8.3
456989.41,9080427.93,8.1
457005.94,9080417.84,7.9
456990.85,9080544.84,7.9
456986.48,9080548.39,7.9
457001.63,9080420.53,7.5
457003,9080659.36,7.4
457007.19,9080655.94,7.4
456992.74,9081026.09,7.4
457010.61,9080415.2,7.4
457007.48,9080532.04,7.4
456986.22,9080913.78,7.3
456988.52,9081029.08,7.2
457003.39,9080535.09,7.2
456988.74,9080669.92,7.1
456990.78,9080911.24,7.1
456996.15,9080664.75,7
456997.01,9081023.32,7
457006.58,9081016.84,6.9
456999.34,9080538.13,6.9
456995.21,9080908.7,6.8
457000.6,9080905.35,6.5
457005.01,9080902.26,6.4
457002.43,9081019.7,6.2
456994.75,9080541.61,6.2
457008.04,9080776.93,6
457009.19,9080899.38,6
457001.83,9080782.39,5.9
456997.3,9080786.24,5.7
456993.05,9080790.08,5.6
456988.91,9080794.14,5.5
456970.04,9080440.47,8.3
456963.93,9080444.93,8.1
456973.54,9080557.93,8
456981.98,9080431.87,7.9
456969.23,9080561.32,7.8
456978.21,9080554.5,7.8
456982.39,9080551.43,7.6
456965.26,9080564.46,7.6
456961.16,9080567.46,7.4
456984.03,9081032.71,7.2
456974.09,9080437.4,7.1
456977.15,9081038.05,7.1
456978.8,9080917.98,7
456972.2,9081042.08,6.8
456974.47,9080920.7,6.7
456984.57,9080672.74,6.6
456968.02,9081045.58,6.5
456970.22,9080923.52,6.5
456965.17,9080314.72,6.4
456963.66,9081049.6,6.3
456965.92,9080926.59,6.2
456964.6,9080686.09,6.1
456969.18,9080682.76,6.1
456980.39,9080675.52,6.1
456975.83,9080678.39,6
456961.89,9080929.61,5.8
456974.15,9080311.12,5.7
456979.53,9080803.46,5.6
456964.8,9080817.13,5.5
456975.37,9080807.45,5.4
456985.31,9080797.89,5.4
456969.02,9080813.52,5.3
456980.48,9080306.82,4.3
456984.51,9080302.58,2.1
456942.28,9080462.4,7.7
456941.83,9080702.06,7.1
456946.55,9080459.35,7.1
456939,9080580.88,7
456956.81,9080570.34,7
456947.71,9080575.64,6.9
456958.65,9080448.9,6.9
456952.43,9080572.97,6.9
456946.45,9080699.14,6.9
456943.39,9080578.22,6.8
456950.92,9080695.9,6.6
456955.13,9080692.79,6.4
456956.15,9081056.95,6.3
456951.57,9081061.75,6.2
456959.31,9080689.87,6.2
456954.74,9080452.21,6.2
456960.37,9080317.23,6.2
456959.84,9081053.17,6.1
456941.99,9080330.76,6.1
456948.85,9080938.41,6
456950.97,9080455.61,6
456946.53,9080326.57,6
456953.12,9080935.67,5.9
456955.35,9080320.16,5.9
456957.56,9080932.75,5.9
456941.35,9080943.46,5.9
456938.39,9080334.33,5.9
456947.99,9081065.37,5.8
456940.4,9081072.4,5.7
456950.47,9080323.47,5.7
456937.04,9080946.56,5.6
456944.15,9081068.88,5.6
456957.61,9080822.56,5.6
456951.19,9080827.38,5.4
456941.45,9080833.98,5.3
456947.05,9080830.36,5.3
456935.31,9080466.56,8.2
456930.79,9080469,7.9
456916.45,9080477.07,7.7
456925.97,9080471.64,7.6
456921.39,9080590.29,7.6
456912.28,9080479.99,7.4
456926.96,9080587.3,7.4
456915.17,9080235.34,7.3
456931.45,9080585,7.1
456920.22,9080233.01,7.1
456924.75,9080230.82,7.1
456934.22,9080706.87,7.1
456926.1,9080712.77,7.1
456930.77,9080226.55,7
456921.92,9080715.72,6.7
456921.47,9080474.02,6.4
456917.49,9080718.83,6.4
456924.85,9080346.24,6.3
456929.06,9080342.89,6.3
456915.38,9080593.94,6.2
456912.03,9080356.35,6.1
456917.98,9080351.37,6.1
456913.55,9081095.49,5.9
456932.9,9080339.53,5.9
456917.75,9081091.82,5.9
456921.92,9081088.21,5.8
456923.41,9080955.88,5.7
456934.69,9081077.4,5.7
456925.74,9081084.83,5.7
456930.48,9080951.26,5.7
456930.81,9081080.57,5.6
456913.04,9080849.23,5.3
456919.19,9080846.52,5.3
456919.22,9080958.73,5.3
456915.05,9080961.78,5.1
456923.82,9080844.41,4.9
456935.28,9080838.05,4.8
456928.4,9080842.21,4.8
456934.93,9080223.41,3.3
456894.55,9080611.85,7.7
456888.53,9080617.19,7.3
456908.3,9080483.13,7.3
456890.04,9080249.05,7.3
456902.2,9080604.33,7.2
456903.61,9080487.14,7.2
456886.31,9080864.18,7.1
456906.59,9080600.44,7.1
456894.35,9080246.46,7
456911.05,9080597.05,7
456906.83,9080239.67,7
456898.63,9080608.01,7
456899.02,9080491.11,7
456890.59,9080861.58,7
456898.79,9080243.93,7
456890.35,9080498.15,6.9
456895.49,9080858.6,6.8
456900.87,9080730.18,6.8
456894.36,9080495.01,6.8
456886.6,9080379.5,6.7
456905.22,9080727.23,6.6
456893.85,9080372,6.6
456890.26,9080375.69,6.5
456897.92,9080368.16,6.4
456901.81,9080364.86,6.3
456903.91,9080853.71,6.3
456894.35,9080734.51,6.2
456909.44,9080724.33,6.2
456905.87,9080361.5,6.1
456905.91,9081102.06,6.1
456909.73,9081098.79,6
456890.92,9080980.67,5.9
456898.37,9080974.28,5.8
456908.39,9080851.4,5.8
456901.01,9081106.47,5.6
456889.94,9080737.33,5.3
456902.49,9080971.11,5.3
456906.63,9080968.07,5
456910.75,9080965.01,4.9
456897.13,9081110.1,4.9
456893.31,9081113.47,4.6
456889.46,9081116.74,4.3
456888.24,9080121.26,1.1
456866.34,9080137.81,9.1
456870.83,9080135.44,8.5
456866.91,9080395.26,7.6
456871.13,9080392.39,7.5
456875.37,9080133.14,7.4
456880.69,9080255.19,7.3
456875.21,9080389.45,7.3
456884.7,9080620.53,7.1
456861.25,9080519.39,7.1
456874.66,9080259,7.1
456870.37,9080261.8,7
456880.65,9080867.8,6.9
456875.47,9080871.04,6.9
456885.81,9080501.55,6.9
456866.62,9080515.35,6.8
456879.21,9080386.41,6.8
456880.83,9080623.72,6.8
456866.2,9080264.62,6.8
456875.06,9080509.46,6.8
456880.78,9080505.29,6.7
456870.77,9080512.45,6.7
456870.83,9080873.92,6.7
456876.65,9080627.17,6.6
456882.99,9080383.05,6.6
456861.71,9080267.59,6.6
456872.84,9080630.44,6.4
456881.69,9080129.38,6.4
456866.61,9080876.65,6.3
456862.4,9080879.54,6.1
456865.6,9080637.06,6
456864.46,9081004.94,5.9
456876.32,9080993.59,5.9
456861.5,9080641.06,5.9
456884.58,9080986.4,5.8
456863.08,9080755.97,5.8
456868.22,9081001.3,5.8
456880.52,9080989.91,5.7
456871.89,9080997.75,5.7
456868.62,9080751.97,5.7
456877.08,9080745.82,5.5
456881.37,9080742.83,5.5
456872.96,9080748.77,5.2
456861.59,9081139.12,5.2
456885.67,9080740.01,5.1
456868.35,9081133.87,5
456876.26,9081127.39,4.7
456885.54,9081119.99,4.6
456872.32,9081130.63,4.6
456880.27,9081124.27,4.5
456885.77,9080126.44,3.3
456859.97,9080141.32,10.3
456855.32,9080144.03,9.9
456850.84,9080146.93,8.9
456846.75,9080149.92,8.3
456844.86,9080530.34,8.1
456852.77,9080525.56,8.1
456842.97,9080153.31,7.9
456840.43,9080532.79,7.6
456856.93,9080522.65,7.5
456854.8,9080403.49,7.5
456839.4,9080156.94,7.5
456860.98,9080399.35,7.4
456850.52,9080406.29,7.3
456843.29,9080411.46,7.2
456839.03,9080414.67,7.1
456843.84,9080769.33,6.5
456838.25,9080773.32,6.5
456856.23,9080271,6.4
456837.86,9080038.74,6.4
456839.16,9080283.22,6.4
456848.01,9080766.36,6.3
456843.54,9080280.06,6.3
456842.42,9080892.9,6.2
456851.98,9080273.8,6.2
456836.79,9080896.14,6.2
456854.48,9081013.46,6.2
456847.59,9080276.96,6.2
456858.51,9081010.28,6.1
456845.76,9081019.74,6
456847.27,9080889.65,6
456856.91,9080883.35,6
456853.21,9080762.71,6
456852.45,9080886.16,6
456850.44,9081016.42,5.9
456841.57,9081022.79,5.8
456842.03,9080035.77,5.7
456857.6,9080644.7,5.7
456837.51,9081025.74,5.6
456853.65,9080647.78,5.6
456840.94,9080656.61,5.5
456845.31,9080653.7,5.5
456850.44,9081146.06,5.4
456849.48,9080650.78,5.4
456845.83,9081148.75,5.3
456839.05,9081152.35,5.3
456857.45,9081141.94,5.2
456846.95,9080034.73,4.1
456850.82,9080038.13,1.4
456811.81,9080054.99,8.9
456816.09,9080052.16,8
456820.44,9080049.59,7.9
456828.24,9080045.23,7.4
456832.66,9080042.66,7.3
456836.02,9080535.2,7.2
456817.26,9080431.01,7.2
456824.87,9080540.72,7.1
456835.39,9080160.39,7.1
456829.97,9080538.41,7
456821.8,9080427.84,6.9
456832.66,9080419.63,6.8
456827.02,9080424.17,6.8
456827.16,9080166.67,6.8
456822.29,9080170.41,6.7
456820.26,9080542.81,6.7
456831.18,9080163.61,6.7
456833.85,9080776.48,6.6
456825.03,9080292.64,6.6
456818.95,9080787.59,6.6
456815.74,9080545.04,6.6
456811.3,9080178.76,6.6
456824.12,9080783.77,6.6
456828.15,9080780.72,6.5
456818.32,9080173.45,6.5
456831.91,9080288.02,6.5
456814.86,9080790.67,6.4
456811.28,9080547.54,6.3
456832.36,9080898.63,6
456820.87,9080295.42,6
456827.67,9080901.62,5.8
456813.65,9080912.71,5.6
456821.67,9081161.04,5.6
456817.58,9081037.6,5.6
456832.76,9081028.89,5.5
456826.13,9081032.63,5.5
456823.6,9080904.56,5.5
456826.84,9081158.41,5.5
456835.48,9080660.06,5.5
456817.22,9081163.47,5.5
456829.82,9080663.52,5.4
456817.74,9080909.3,5.4
456832.01,9081155.91,5.3
456813.28,9081040.2,5.3
456812.8,9081165.86,5.2
456823.04,9080667.36,5.2
456812.99,9080672.51,5.1
456817.54,9080670.15,5
456816.24,9080298.63,5
456811.29,9080302.47,5
456811.81,9079934.84,1.7
456812.51,9079929.81,-0.8
456799.91,9080063.65,9.2
456796.2,9080067.01,8.9
456804.61,9080059.95,8.9
456792.47,9080070.37,8.7
456788.02,9080074.11,8.5
456788.33,9079949.09,7.2
456810.7,9080435.43,7.2
456792.71,9079946.58,6.9
456807.22,9080181.7,6.7
456791.4,9080562.47,6.7
456792.06,9080317.31,6.7
456803.11,9080184.77,6.7
456805.48,9080438.65,6.7
456797.73,9080442.54,6.6
456793.9,9080192.86,6.6
456799.25,9080188.01,6.6
456796.64,9080313.92,6.5
456791.17,9080445.57,6.5
456795.17,9080559.04,6.5
456801.44,9080800.79,6.4
456788.91,9080197.38,6.4
456791.48,9080807.06,6.4
456787.17,9080809.74,6.4
456795.9,9080804.4,6.4
456806.74,9080550.39,6.3
456806.94,9080796.86,6.3
456801.46,9080554.05,6.3
456797.25,9079944.3,6.3
456800.71,9080310.9,6.1
456786.57,9080934.42,5.6
456809.69,9080915.99,5.5
456790.99,9080931.29,5.5
456804.07,9080920.56,5.4
456800.18,9080923.77,5.4
456797.73,9080681.58,5.2
456789.71,9080686.44,5.2
456795.08,9080928.04,5.2
456807.27,9080305.71,5.2
456807.77,9081168.56,5.1
456808.21,9080675.3,5.1
456802.16,9080678.98,5.1
456808.84,9081042.72,5
456792.31,9081051.24,5
456803.31,9081171.09,4.9
456797.31,9081048.69,4.9
456803.66,9081045.46,4.8
456798.98,9081173.6,4.7
456786.86,9081054.31,4.7
456793.27,9081176.76,4.5
456787.59,9081180.01,4.3
456801.98,9079941.97,3.7
456808.22,9079938.36,3.2
456784.03,9080077.19,8.3
456779.78,9080080.27,7.9
456775.63,9080083.35,7.6
456771.63,9080086.39,7.5
456765.73,9080091.2,7.4
456778.83,9079956.76,7.4
456785.64,9080322.05,6.9
456780,9080572.54,6.8
456775.74,9080575.87,6.8
456785.39,9080568.03,6.8
456781.01,9080325.57,6.8
456766.89,9080583.23,6.7
456771.71,9080579.17,6.7
456775.17,9079960.22,6.6
456777,9080328.68,6.6
456761.19,9080825.99,6.6
456762.45,9080586.48,6.6
456766.79,9080823.14,6.5
456782.98,9080812.59,6.5
456777.82,9080816.18,6.5
456771.13,9080820.62,6.5
456785.69,9080447.99,6.5
456780.81,9080450.28,6.3
456772.39,9080332.22,6.3
456773.76,9080453.89,6.3
456762.47,9079970.06,6.3
456766.42,9080457.83,6.3
456764.28,9079870.45,6.3
456768.09,9080948.95,6.2
456764.1,9080951.97,6.1
456784.94,9080201.05,6.1
456767.92,9080335.88,6.1
456770.05,9079964.46,6
456763.08,9080340.08,6
456779.85,9080205.51,6
456772.92,9080945.15,6
456777.11,9080941.61,5.9
456765.34,9080701.68,5.7
456762.15,9080218.64,5.7
456781.92,9080937.88,5.7
456775.86,9080208.64,5.7
456766.78,9080215.19,5.6
456770.86,9080212.28,5.6
456770.02,9080698.62,5.5
456776.21,9080694.54,5.4
456783.02,9080690.41,5.4
456768.84,9081066.2,4.7
456766.82,9079866.07,4.7
456764.28,9081069.16,4.6
456781.12,9081058,4.5
456767.69,9081192.2,4.5
456773.14,9081063.39,4.5
456761.37,9081196.22,4.5
456773.79,9081188.33,4.4
456779.18,9081185.03,4.3
456769.27,9079861.68,2.8
456772.89,9079857.98,0.9
456777.84,9079857.02,-0.4
456738.42,9079989.73,7.4
456753.45,9080101.76,7.3
456759.68,9080096.39,7.3
456742.6,9080111.5,7.2
456748.96,9080105.85,7.2
456745.33,9079983.92,7.2
456750.43,9079979.82,7
456736.53,9080236.41,6.9
456741.19,9080233.66,6.9
456756.94,9080590.46,6.7
456757.73,9080222.03,6.6
456746.23,9080230.62,6.6
456749.19,9080832.51,6.6
456754.28,9079976.52,6.6
456758.32,9079973.12,6.6
456737.09,9080361.23,6.5
456758.82,9079875.8,6.5
456750.53,9080595.48,6.5
456752.5,9079880.11,6.5
456751.3,9080227.23,6.5
456749.46,9080468.56,6.5
456756.69,9080828.28,6.4
456739.76,9080476.19,6.4
456744.99,9080835.28,6.4
456753.69,9080465.57,6.4
456739.85,9080838.95,6.4
456737.2,9079890.28,6.4
456745.41,9080471.62,6.3
456757.89,9080462.82,6.3
456741.19,9080603.01,6.3
456746.56,9080598.64,6.3
456741.11,9080358.08,6.3
456758.7,9080956.28,6.2
456748.17,9079882.77,6.2
456748.63,9080963.84,6.1
456745.19,9080354.89,6.1
456754.54,9080959.44,6
456744.31,9080966.93,6
456749.65,9080351.36,5.9
456737.89,9080971.21,5.9
456757.66,9080344.72,5.9
456752.4,9080709.62,5.8
456737.7,9079821.64,5.8
456748.01,9080712.16,5.8
456753.72,9080348.05,5.7
456759.86,9080705.24,5.7
456743.87,9079885.46,5.7
456743.16,9080715.1,5.6
456745.51,9081081.46,5.2
456751.56,9081077.54,4.9
456740.91,9081084.46,4.9
456755.85,9081074.72,4.7
456736.53,9081087.34,4.6
456760.07,9081071.92,4.6
456753.37,9081201.42,4.5
456749.01,9081204.46,4.5
456743.25,9081208.52,4.4
456739.18,9081211.47,4.2
456741.99,9079819.06,3.7
456746.22,9079816.32,1.3
456750.65,9079813.96,-0.5
456711.7,9079837.03,9.4
456717.4,9079833.68,8.9
456716.5,9079908.43,8.3
456712.4,9079911.43,8.2
456728.66,9080367.43,8
456722.4,9080371.79,8
456721.77,9079831.09,7.9
456728.94,9079997.58,7.9
456712.06,9080131.11,7.8
456716.75,9080375.94,7.8
456730.66,9079825.95,7.7
456716.32,9080128.33,7.7
456726.07,9079828.53,7.7
456733.9,9079993.59,7.6
456712.66,9080378.86,7.5
456720.73,9080125.44,7.5
456724.96,9080000.77,7.4
456714.35,9080496.22,7.3
456725.03,9080122.73,7.3
456720.83,9080490.44,7.2
456715.81,9080249.92,7.2
456735.1,9080116.8,7.2
456720.68,9079905.24,7.2
456732.92,9080364.41,7.2
456730.57,9080119.56,7.1
456725.66,9080243.23,6.9
456730.06,9080240.33,6.8
456716.99,9080731.41,6.8
456719.96,9080247.01,6.8
456717.78,9080006.07,6.8
456724.76,9080487.32,6.7
456723.03,9080727.06,6.6
456729.23,9080483.92,6.6
456729.85,9079897.2,6.6
456733.73,9080480.66,6.4
456727.27,9080724.33,6.3
456725.03,9079901.6,6.3
456729.02,9080613.46,6.3
456735.45,9080608.04,6.3
456714.5,9080624.61,6.1
456725.06,9080616.57,6.1
456721.02,9080619.64,6
456735.56,9080842.1,5.9
456731.59,9080721.79,5.8
456736.06,9080719.29,5.7
456733.31,9080974.09,5.6
456731.53,9080845.11,5.6
456728.4,9080977.29,5.5
456724.15,9080980.13,5.5
456719.85,9080982.98,5.4
456733.48,9079893.69,5.4
456727.39,9080848.33,5.3
456713.1,9080988.04,5.2
456717.71,9081099.03,5.1
456723.49,9081095.36,5.1
456713.35,9081101.76,5
456722.68,9080852.1,4.9
456718.25,9080855.76,4.8
456728.35,9081092.42,4.7
456714.35,9080858.92,4.6
456725.06,9081221.99,4.4
456720.19,9081225.58,4.4
456714.59,9081229.52,4.3
456729.19,9081218.98,4.3
456733.26,9081215.96,4.2
456714.8,9079748.86,2.9
456719.03,9079746.16,1.2
456724.04,9079746.45,-0.7
456690.6,9079849.74,9.2
456693.94,9079925.24,9.1
456700.76,9079919.74,9
456707.77,9080255.8,8.5
456689.77,9079928.68,8.5
456703.16,9080259.2,8.4
456707.36,9079839.57,8.3
456692.98,9080022.61,8.3
456697.63,9080019.53,8.2
456686.8,9080026.73,8.1
456701.82,9080016.76,8.1
456699.14,9080262.24,8
456707.15,9080134.34,7.9
456694.96,9080265.53,7.9
456688.01,9080270.66,7.8
456701.96,9080137.66,7.7
456698.81,9080509.63,7.7
456694.99,9080512.95,7.6
456706.08,9080013.98,7.6
456698.05,9080388.34,7.5
456708.24,9079914.44,7.5
456690.85,9080392.88,7.5
456708.46,9080381.67,7.5
456702.48,9080385.51,7.5
456710.4,9080011.16,7.4
456697.54,9080140.58,7.4
456693.34,9080143.5,7.3
456686.35,9080395.53,7.3
456691.06,9080516.41,7.3
456689.23,9080146.5,7.1
456705.63,9080503.7,7
456710.7,9080736.64,7
456705.21,9080741.1,6.9
456687.25,9080519.79,6.9
456709.5,9080500.45,6.8
456698.25,9080746.71,6.7
456691.71,9079762.94,6.6
456694.25,9080749.82,6.5
456689.83,9080753.14,6.3
456701.05,9080634.76,6.2
456696.48,9079760.78,6.2
456693.44,9080640.09,6.1
456705.11,9080631.54,6.1
456710.34,9080627.63,6
456689.3,9080643.07,6
456707.51,9080992.62,5.1
456694.63,9081113.34,5.1
456701.39,9080997.29,5.1
456689.25,9081116.67,5
456708.74,9081104.47,5
456698.86,9081110.63,5
456694.33,9080874.79,5
456704.3,9081107.14,4.9
456689.91,9080878.04,4.9
456699.44,9080870.87,4.9
456694.74,9081001.45,4.9
456703.32,9080867.7,4.8
456709.47,9080862.71,4.7
456690.47,9081004.14,4.5
456701.02,9079758.5,4.4
456686.14,9081006.91,4.3
456709.8,9081232.43,4.1
456707.29,9079754.4,3.9
456705.13,9081235.24,3.8
456692.29,9081243.56,3.7
456698.06,9081239.91,3.7
456686.82,9081247.09,3.5
456679.83,9079856.82,9.5
456662.72,9079870.34,9.3
456685.79,9079852.86,9.2
456684.61,9079933.09,8.9
456670.47,9080039.53,8.6
456664.82,9080044.23,8.4
456671.49,9079863.43,8.4
456663.06,9079780.75,8.3
456674.55,9080036.33,8.1
456666.66,9079867.19,8.1
456664.2,9080165.41,8.1
456682.67,9080029.75,8
456667.54,9079777.38,8
456678.45,9080033.19,7.9
456675.44,9079860.17,7.9
456668.23,9080162.02,7.9
456680.76,9079936.4,7.8
456683.79,9080273.63,7.6
456673.06,9079942.54,7.6
456672.26,9079774.13,7.5
456679.36,9080276.76,7.5
456672.46,9080158.71,7.5
456662.27,9079951.53,7.4
456685.12,9079766.33,7.4
456664.79,9080286.35,7.3
456669.46,9080283.41,7.2
456668.87,9079946.13,7.2
456675.16,9080279.66,7.1
456676.55,9080155.65,7
456680.72,9079768.97,7
456681.99,9080398.25,7
456684.91,9080149.61,6.9
456680.83,9080152.54,6.9
456677.01,9080401.5,6.8
456668.78,9080407.52,6.8
456672.85,9080404.45,6.7
456663.66,9080411.39,6.6
456683.14,9080523.17,6.5
456679.17,9080526.35,6.2
456683.57,9080757.49,6
456678.8,9080760.57,5.8
456675.17,9080529.61,5.8
456665.23,9080537.77,5.8
456670.57,9080533.47,5.8
456673.36,9080764.24,5.8
456684.87,9080646.51,5.7
456669.12,9080767.09,5.6
456664.38,9080770.6,5.5
456679.86,9080650.5,5.3
456665.2,9080661.27,5.2
456669.55,9080658.2,5.1
456675.88,9080653.54,5
456684.61,9081119.74,4.9
456679.07,9081123.44,4.7
456685.73,9080881.02,4.7
456680.58,9080884.53,4.6
456675.91,9080887.99,4.6
456673.89,9081126.77,4.6
456669.37,9081129.67,4.6
456663.58,9081133.08,4.5
456669.26,9080893.26,4.3
456663.42,9080897.86,4.3
456681.68,9081009.71,4
456668.39,9081018.51,3.8
456672.67,9081015.78,3.8
456677.44,9081012.52,3.7
456662.87,9081021.89,3.7
456676.82,9081253.46,3.6
456682.51,9081249.91,3.5
456661.8,9081261.95,3.5
456671.94,9081256.28,3.4
456666.14,9081259.43,3.4
456638.69,9079886.5,8.9
456657.78,9079784.31,8.7
456648.48,9079880.19,8.5
456660.91,9080047.59,8.2
456656.97,9080050.76,8.1
456658.27,9080171.01,8.1
456651.65,9080054.34,8.1
456645.89,9080057.87,8
456642.91,9079883.71,8
456641.06,9080060.58,8
456656.01,9079875.47,7.9
456654.78,9080174.6,7.9
456636.45,9080063,7.8
456636.88,9080190.79,7.6
456651.37,9080178.35,7.6
456653.08,9079786.98,7.6
456647.92,9080182.11,7.6
456643.13,9080186.34,7.6
456645.16,9079790.09,7.5
456647.08,9079963.28,7.3
456657.38,9079955.43,7.2
456651.43,9080420.66,7.2
456642.06,9079966.83,7.1
456645.09,9080425.49,7.1
456637.79,9079969.64,7
456639.51,9080429.56,6.9
456655.73,9080292.16,6.9
456655.41,9080417.59,6.8
456640.47,9079791.84,6.7
456659.56,9080414.47,6.7
456659.94,9080289.37,6.5
456638.23,9080304.43,6.4
456652.6,9079959.1,6.4
456642.43,9080301.32,6.3
456646.56,9080298.37,6.2
456643.84,9080551.77,6
456638.29,9080554.89,6
456660.97,9080540.99,6
456653.98,9080545.91,5.9
456648.85,9080549.02,5.8
456651.49,9080295.01,5.7
456660.35,9080773.64,5.4
456655.2,9080777.61,5.3
456648.73,9080783.64,5.3
456661.05,9080664.08,5.1
456655.14,9080667.78,5
456649.27,9080671.58,4.9
456642.06,9080676.56,4.9
456645.03,9080787.11,4.8
456640.09,9080791.6,4.8
456637.95,9080679.43,4.7
456659.04,9081135.77,4.4
456658.13,9080901.91,4.3
456652.61,9080905.87,4.2
456648.49,9080908.85,4.1
456644.47,9080911.85,4
456639.28,9080916.04,3.8
456645.17,9081269.96,3.8
456653.78,9081027.67,3.8
456650.61,9081140.7,3.8
456650.39,9081267.72,3.7
456655.24,9081265.43,3.7
456658.39,9081024.79,3.6
456646.08,9081143.16,3.5
456649.1,9081030.54,3.5
456636.94,9081273.37,3.4
456641.75,9081145.68,3.4
456642.33,9081035.26,3.3
456637.04,9081039.32,3.1
456637.54,9081148.54,3.1
456628.86,9079892.78,8.7
456621.43,9079896.92,8.7
456633.39,9079889.99,8.6
456612.04,9079808.75,8.6
456616.88,9079899.21,8.4
456616.51,9079805.7,8.3
456621.08,9079981.76,8.2
456612.36,9079901.36,8.1
456626.78,9079977.06,8.1
456633.01,9079972.74,8
456616.76,9079985.96,7.9
456630.8,9080065.99,7.8
456628.27,9080196.66,7.7
456632.51,9080193.67,7.7
456614.33,9080075.35,7.7
456625.92,9080068.69,7.6
456620.21,9080071.89,7.5
456613.12,9079989.51,7.5
456627.28,9079798.52,7.4
456635.8,9079793.91,7.3
456633.17,9080434.23,7.2
456628.28,9080437.74,7.2
456623.34,9080441.17,7.1
456620.63,9079802.82,7
456618.09,9080444.69,6.9
456612.12,9080696.97,6.8
456628.42,9080311.55,6.8
456620.36,9080202.03,6.8
456613.6,9080447.57,6.8
456614.64,9080205.82,6.8
456632.76,9080308.37,6.7
456611.13,9080573.84,6.6
456615.62,9080570.46,6.6
456624.23,9080563.68,6.6
456619.54,9080567.28,6.6
456629.68,9080560.26,6.5
456621.94,9080316.39,6.4
456616.19,9080694.03,6.4
456634.01,9080557.56,6.4
456617.88,9080319.42,6.2
456611.79,9080324.17,6.1
456620.29,9080691.13,5.2
456635.93,9080795.2,4.6
456624.62,9080688.18,4.6
456611.74,9080812.73,4.5
456629.09,9080800.6,4.5
456619.92,9080807.62,4.5
456625.04,9080803.83,4.4
456633.11,9080682.78,4.4
456620.99,9080932.25,3.9
456616.68,9080936.43,3.8
456625.92,9080927.61,3.7
456635.38,9080919.3,3.7
456631.14,9080922.89,3.7
456630.97,9081044.18,3.1
456633.53,9081151.6,2.9
456626.29,9081047.8,2.9
456618.59,9081053.74,2.8
456626.9,9081156.94,2.8
456632.31,9081275.47,2.8
456613.81,9081057.87,2.7
456627.79,9081277.71,2.6
456614.58,9081166.9,2.5
456620.44,9081162.17,2.5
456623.45,9081280.22,2.4
456612.28,9081290.04,2.4
456619.14,9081283.41,2.4
456595.18,9079818.5,9.2
456607.45,9079811.71,9.2
456588.57,9079821.17,9.1
456599.69,9079816.24,8.7
456598.59,9079909.11,8.4
456603.35,9079906.17,8.3
456590.57,9079998.94,8.2
456596.18,9079997.24,8.1
456594.17,9079911.72,8.1
456607.75,9079903.68,8.1
456588.46,9079915.14,7.9
456604.5,9079994.77,7.9
456609.76,9080078.23,7.6
456609.04,9079992.58,7.5
456591.28,9080091.13,7.3
456604.43,9080081.7,7.2
456595.41,9080088.07,7.2
456591.77,9080462.46,7.1
456607.5,9080700.02,7.1
456600.28,9080084.54,7
456601.43,9080703.67,7
456596.12,9080706.91,7
456596.56,9080459.04,7
456587.18,9080466.12,6.9
456600.79,9080456.1,6.9
456601.96,9080580.56,6.8
456605.71,9080452.78,6.8
456591.81,9080221.14,6.8
456601.3,9080214.92,6.7
456591.74,9080709.65,6.7
456596.71,9080217.99,6.7
456595.97,9080584.77,6.7
456587.41,9080712.54,6.6
456606.26,9080577.4,6.6
456605.53,9080211.83,6.5
456610.38,9080208.52,6.5
456591.8,9080587.64,6.1
456605.8,9080328.67,6
456599.16,9080333.08,5.9
456587.67,9080590.51,5.9
456594.3,9080335.94,5.9
456589.61,9080338.53,5.8
456602.59,9080819.2,4.6
456598.51,9080822.25,4.5
456607.42,9080815.68,4.4
456594.56,9080825.39,4.2
456588.34,9080830.8,4.1
456610.41,9080942.72,3.8
456606.77,9080946.29,3.7
456594.88,9080957.16,3.4
456601.05,9080951.69,3.3
456591.01,9080960.49,3.2
456586.29,9080964.47,3.1
456602.23,9081067.43,3
456608.8,9081062.29,2.9
456589.31,9081076.78,2.8
456593.8,9081073.71,2.7
456607.64,9081296.05,2.7
456607.63,9081172.48,2.7
456598.05,9081070.6,2.7
456603.59,9081175.68,2.7
456597.79,9081180.57,2.6
456604.29,9081299.85,2.5
456593.29,9081184.35,2.4
456600.72,9081303.52,2.4
456588.87,9081188.01,2.4
456597.04,9081307,2.2
456589.94,9081312.56,2.1
456583.76,9079823.11,9
456564.1,9080014.82,8.6
456581.4,9080003.51,8.5
456579.16,9079825.19,8.4
456568.28,9080012.02,8.1
456576.77,9080006.38,8
456569.77,9079829.81,8
456574.54,9079827.5,7.9
456565.28,9079832.06,7.8
456572.53,9080009.18,7.8
456580.63,9079920.64,7.7
456575.73,9079923.83,7.6
456584.97,9080095.64,7.5
456579.78,9080099.67,7.5
456570.91,9079927.04,7.5
456566.79,9079930.02,7.4
456575.15,9080103.53,7.2
456571.05,9080106.6,7
456566.51,9080109.6,6.9
456585.16,9080225.55,6.9
456562.13,9080112.5,6.9
456562.23,9079933.52,6.9
456583.32,9080469.32,6.9
456581.06,9080228.58,6.8
456577.24,9080474.05,6.8
456577,9080231.67,6.7
456573.2,9080477.16,6.5
456583.12,9080715.58,6.4
456572.88,9080234.8,6.4
456569.03,9080480.41,6.3
456568.79,9080237.79,6.2
456578.86,9080718.67,6.2
456563.83,9080241.23,6.2
456571.98,9080723.48,6.1
456564.96,9080483.53,6
456567.74,9080726.38,5.9
456576.56,9080345.83,5.8
456563.43,9080729.27,5.7
456572.41,9080348.77,5.7
456582.23,9080342.61,5.7
456583.53,9080593.35,5.7
456564.52,9080357.96,5.6
456568.94,9080352.47,5.6
456579.35,9080596.38,5.6
456575.22,9080599.29,5.4
456571.03,9080602.21,5.4
456563.97,9080607.26,5.2
456562.52,9080852.78,4.6
456572.08,9080844.69,4.4
456568.09,9080847.91,4.4
456576.26,9080841.4,4.3
456580.17,9080838.15,4.1
456584.06,9080834.7,3.9
456581.69,9080968.18,3.2
456581.11,9081082.73,3.2
456573.96,9081088.43,3.1
456573.35,9080974.4,3.1
456565.53,9080979.54,3.1
456569.43,9081092.04,3.1
456577.56,9080971.39,3.1
456562.04,9081097.49,3
456585.15,9081079.68,2.9
456572.88,9081200.82,2.5
456565.03,9081206.69,2.5
456578.05,9081320.18,2.4
456585.72,9081315.44,2.4
456578.41,9081196.44,2.3
456573.75,9081322.85,2.3
456584.41,9081191.68,2.2
456565.36,9081328.14,2.2
456553.82,9080022.37,8.8
456559.78,9080017.93,8.8
456548.76,9080026.11,8.5
456556.35,9079836.86,8.4
456560.89,9079834.49,8.2
456544.57,9080029.06,8.1
456550.95,9079839.68,8.1
456536.19,9080034.68,7.9
456540.37,9080031.9,7.9
456546.35,9079842.03,7.7
456541.85,9079844.22,7.6
456538.88,9080131.06,7.5
456537.25,9079846.52,7.5
456556.46,9079938.09,7.5
456546.47,9079944.87,7.2
456536.26,9079950.94,7.1
456540.72,9079948.39,7.1
456548.14,9080123.5,6.9
456542.88,9080127.86,6.9
456558.07,9080115.43,6.7
456554.04,9080118.6,6.6
456550.47,9080249.2,6.6
456542.63,9080254.31,6.4
456538.31,9080377.66,6.2
456537.28,9080258.02,6.2
456552.33,9079941.1,6.1
456555.11,9080246.45,6.1
456538.31,9080504.43,6.1
456559.52,9080243.93,6.1
456547.4,9080497.01,6
456557.34,9080489.38,6
456544.4,9080373.02,6
456552.11,9080493.36,6
456542.82,9080500.85,6
456549.43,9080369.48,5.9
456556.64,9080364.73,5.8
456558.44,9080732.42,5.7
456550.03,9080737.17,5.6
456545.11,9080740.18,5.6
456539.19,9080743.88,5.5
456558.8,9080610.78,5.2
456551.14,9080615.44,5.1
456542.16,9080621.13,5
456546.73,9080618.15,5
456536.94,9080624.41,5
456557.49,9080856.95,4.7
456539.95,9080870.62,4.6
456552.89,9080860.56,4.6
456545.7,9080866.08,4.6
456543.2,9081111.37,3.6
456539.04,9081114.27,3.5
456547.44,9081108.29,3.3
456547.31,9080990.42,3.3
456542.71,9080993.23,3.3
456552.38,9080987.33,3.3
456538.47,9080996,3.2
456558.78,9080983.51,3.1
456551.47,9081105.17,3
456555.9,9081101.75,2.9
456545.45,9081220.29,2.7
456540.5,9081223.9,2.7
456536.33,9081226.97,2.5
456549.71,9081217.2,2.4
456559.83,9081210.21,2.3
456555.34,9081213.29,2.2
456561.05,9081330.86,2.1
456555.89,9081333.88,2
456550.05,9081337.07,1.8
456545.51,9081339.63,1.7
456540.57,9081342.64,1.7
456528.45,9080139.34,8.2
456514.92,9080149.58,8.1
456522.91,9080143.75,8.1
456533.2,9080135.57,8
456531.74,9080037.59,7.8
456528.2,9079851.4,7.5
456526.44,9080040.84,7.4
456519.11,9079959.83,7.4
456521.59,9079855.18,7.3
456513.61,9079962.42,7.3
456521.54,9080043.8,7.3
456523.73,9079957.58,7.3
456532.6,9079848.99,7.3
456531.44,9079953.54,7.3
456511.26,9079861.04,7.2
456517.27,9080046.45,7.2
456517.13,9079857.76,7.1
456528.41,9080385.28,6.4
456534.22,9080380.91,6.4
456522.12,9080389.88,6.2
456514.72,9080522.05,6.1
456529.94,9080263.64,6.1
456517.04,9080393.79,6.1
456522.7,9080516.28,6.1
456533.93,9080507.92,6
456527.24,9080512.98,6
456512.97,9080276.7,6
456525.97,9080266.75,6
456516.94,9080273.59,5.9
456521.62,9080270.01,5.9
456512.95,9080396.67,5.9
456512.74,9080762.25,5.7
456518.67,9080757.66,5.6
456534.22,9080747.1,5.5
456522.83,9080754.65,5.5
456529.98,9080749.88,5.5
456530.82,9080628.35,5.1
456514.36,9080640.25,5.1
456526.53,9080631.2,5
456522.12,9080634.3,4.9
456536.01,9080873.76,4.8
456529,9080879.13,4.8
456524.3,9080882.82,4.6
456515.48,9080889.73,4.5
456519.79,9080886.33,4.5
456512.73,9081011.99,3.5
456534.79,9081117.05,3.3
456517.11,9081009.49,3.2
456530.07,9081120.31,3.1
456522.27,9081006.42,3
456533.99,9080998.9,3
456511.42,9081132.7,3
456526.63,9081003.69,3
456520.25,9081126.87,2.9
456524.52,9081124.07,2.8
456515.68,9081129.85,2.8
456513.8,9081248.27,2.5
456521.56,9081239.74,2.3
456532,9081230.39,2.3
456527.34,9081234.4,2.3
456517.13,9081244.54,2.1
456528.49,9081351.46,1.7
456513.95,9081365.17,1.7
456535.08,9081346.37,1.7
456524.69,9081354.75,1.5
456520.12,9081358.97,1.5
456508.78,9080154.26,8
456503.8,9080158.13,7.9
456496.27,9080163.85,7.7
456491.58,9080167.57,7.7
456487.16,9080171.49,7.6
456490.07,9080067.87,7.6
456494.29,9080064.74,7.4
456508.86,9079964.81,7.3
456502.79,9079968,7.3
456497.52,9079970.84,7.3
456493.05,9079973.37,7.3
456487.37,9079976.56,7.3
456506.65,9079863.59,7.3
456506.98,9080054.1,7.2
456498.41,9080061.57,7.2
456492.9,9079871,7.2
456498.17,9079868.12,7.1
456510.94,9080050.87,7.1
456502.3,9080058.25,7.1
456490.21,9080292.4,6.7
456494.54,9080289.66,6.6
456494.27,9080537.27,6.6
456490.29,9080540.3,6.5
456503.01,9080283.9,6.4
456507.63,9080280.59,6.4
456498.45,9080534.1,6.4
456498.73,9080286.91,6.3
456503.32,9080530.34,6.3
456486.28,9080543.49,6.3
456508.71,9080526.4,6.2
456507.74,9080399.96,5.8
456502.99,9080402.76,5.7
456506.15,9080767.91,5.6
456498.69,9080405.54,5.5
456500.81,9080771.95,5.4
456491.59,9080410.29,5.4
456487.86,9080781.46,5.4
456494.73,9080776.28,5.3
456509.91,9080643.99,5
456505.17,9080647.85,4.6
456489.19,9080661.1,4.4
456510.53,9080893.49,4.4
456505.02,9080897.46,4.3
456497.87,9080653.48,4.3
456493.9,9080656.87,4.1
456501.09,9080900.68,4.1
456497.25,9080903.99,3.8
456505.95,9081016.07,3.7
456490.04,9081026.19,3.5
456492.02,9080908.89,3.5
456497.4,9081021.58,3.5
456501.65,9081018.83,3.5
456487.96,9080913.4,3.5
456507.24,9081135.52,3.1
456501.88,9081139.26,3
456497.75,9081142.26,2.7
456493.74,9081145.25,2.6
456489.26,9081148.75,2.4
456509.9,9081252.19,2.3
456505.96,9081255.77,2.2
456487.2,9081271.08,2
456502.04,9081258.94,2
456488.57,9081390.33,2
456497.38,9081262.63,1.9
456502.55,9081377.22,1.9
456493.4,9081265.84,1.9
456498.91,9081380.68,1.7
456494.99,9081384.37,1.7
456509.39,9081370.06,1.6
456478.21,9080076.21,7.6
456484.7,9080071.82,7.5
456470.06,9080304.1,7.5
456478.3,9079878.77,7.5
456464.84,9080428.08,7.4
456473.95,9080079,7.4
456485.71,9079874.78,7.4
456473.97,9079881.42,7.3
456482.45,9080175.87,7.3
456476.82,9080299.74,7.3
456481.8,9079979.74,7.3
456463.47,9079887.6,7.3
456469.65,9079883.96,7.3
456476.97,9079982.45,7.2
456472.47,9079984.88,7.2
456467.97,9079987.38,7.2
456465.88,9080306.95,7.2
456469.51,9080081.88,7.1
456471.02,9080423.82,7.1
456481.93,9080296.9,7
456461.64,9080309.93,6.9
456464.75,9080084.84,6.8
456478.76,9080179.3,6.6
456479.65,9080548.51,6.4
456475.29,9080420.88,6.3
456475.05,9080182.66,6.2
456475.31,9080551.37,6.1
456471.16,9080185.94,6
456465.26,9080557.43,6
456470.77,9080554.12,5.9
456479.52,9080417.94,5.9
456462.86,9080192.69,5.9
456467.13,9080189.21,5.8
456484.07,9080415.16,5.5
456477.99,9080789.38,5
456483.86,9080784.61,5
456474,9080792.67,4.6
456469.89,9080795.99,4.5
456468.15,9080678.4,4.5
456465.78,9080799.27,4.4
456461.67,9080802.93,4.3
456485.41,9080664.5,4.2
456477.21,9080671.56,4.2
456472.24,9080675.48,4.1
456481.58,9080667.9,4
456485.6,9081028.78,3.8
456480.18,9081031.96,3.6
456469.9,9081038.75,3.6
456475.49,9081034.94,3.5
456483.77,9080917.66,3.5
456465.17,9081041.81,3.5
456478.28,9080922.87,3.4
456474.6,9080926.5,3.1
456470.8,9080930.2,3
456466.42,9080934.28,3
456461.11,9080939.38,2.9
456475.45,9081159.9,2.5
456479.42,9081156.67,2.5
456483.53,9081153.35,2.4
456471.24,9081163.26,2.3
456467.23,9081166.34,2.1
456462.7,9081169.75,2.1
456482.47,9081275.29,2
456476.9,9081401.1,1.8
456471.83,9081405.22,1.8
456478.53,9081279,1.8
456484.8,9081393.84,1.8
456480.69,9081397.67,1.7
456467.19,9081408.82,1.7
456474.28,9081283.03,1.7
456463.09,9081412.02,1.6
456465.42,9081290.98,1.6
456469.25,9081287.69,1.5
456442.74,9080446.03,7.9
456442.02,9080008.58,7.7
456446.17,9080005.2,7.5
456455.67,9080089.86,7.5
456450.05,9080001.86,7.5
456450.62,9080438.65,7.5
456454,9079998.45,7.4
456460.35,9079993.15,7.4
456457.92,9079890.65,7.3
456460.77,9080431.03,7.2
456450.14,9080092.7,7.2
456446.33,9080442.43,7.2
456453.42,9079892.88,7.1
456443.16,9079899.01,7.1
456460.14,9080087.47,7
456437.02,9080451.93,7
456447.48,9079896.2,7
456437.9,9079902.51,6.9
456442.88,9080323.12,6.9
456456.16,9080313.71,6.8
456451.58,9080317.01,6.6
456447.23,9080320.22,6.6
456456.56,9080434.11,6.5
456445.66,9080095.04,6.5
456441.17,9080097.61,6.2
456436.68,9080100.57,6.1
456459.42,9080560.65,5.9
456458.91,9080195.78,5.7
456438.07,9080573.82,5.6
456454.92,9080563.16,5.6
456454.8,9080198.75,5.4
456446.45,9080205.36,5.3
456437.23,9080213.64,5.2
456450.77,9080201.73,5.2
456441.28,9080210.18,5.1
456442.32,9080571.05,5.1
456448.65,9080566.9,5.1
456444.95,9080696.39,4.6
456439.04,9080701.19,4.6
456461.06,9080683.51,4.5
456448.76,9080693.15,4.3
456454.91,9080688.14,4.3
456450.4,9080813.76,4
456457.99,9080806.51,4
456445.65,9080817.98,3.7
456454.11,9080810.23,3.7
456441.38,9080821.4,3.5
456458.12,9081046.49,3.5
456452.13,9081050.48,3.5
456447.92,9081053.27,3.3
456436.84,9080824.59,3.2
456443.87,9080955.88,3.2
456453.21,9080947.31,3.1
456443.52,9081056.23,3.1
456457.56,9080942.95,3.1
456448.78,9080951.48,3
456439.22,9081059.17,3
456436.82,9080962.01,2.9
456440.4,9081187.67,2.4
456452.54,9081177.72,2.2
456447.38,9081181.94,2.2
456458.66,9081172.88,2.1
456460.64,9081294.79,2
456456.56,9081297.9,1.9
456452.53,9081300.89,1.8
456439.01,9081309.78,1.8
456447.71,9081304.21,1.7
456443.36,9081307.04,1.7
456439.75,9081429.05,1.6
456457.58,9081416.28,1.6
456453.46,9081419.4,1.6
456448.11,9081423.29,1.5
456443.98,9081426.13,1.5
456427.73,9080020.53,7.7
456434.65,9080014.67,7.6
456416.42,9080029.53,7.6
456423.07,9080024.41,7.5
456414.56,9079916.69,7.2
456422.35,9079912.14,7.1
456434.66,9080328.04,7.1
456430.05,9080330.8,7
456429.74,9079907.76,7
456423.48,9080334.89,6.9
456418.39,9080114.26,6.8
456418.81,9080338.16,6.8
456423.74,9080110.25,6.8
456412.85,9080118.21,6.8
456427.9,9080460.78,6.7
456433.21,9080455.75,6.6
456427.7,9080107.18,6.6
456414.66,9080341.24,6.3
456431.81,9080104.07,6.2
456431.36,9080578.63,6.1
456423.89,9080463.93,5.6
456427.41,9080582.02,5.4
456416.15,9080230.96,5.3
456420.28,9080227.74,5.2
456433.25,9080216.99,5.1
456428.88,9080220.67,5.1
456423.29,9080585.67,5
456424.28,9080224.55,5
456419.27,9080588.87,4.3
456419.85,9080466.88,4.3
456434.46,9080704.53,4.2
456415.18,9080591.85,4.1
456416.57,9080716.72,4.1
456430.28,9080707.37,4
456412.13,9080719.81,4
456426.13,9080710.22,4
456420.79,9080713.89,4
456414.72,9080470.14,4
456432.49,9080827.6,3
456412.79,9080843.76,3
456433.53,9081063.05,2.9
456428.34,9080830.67,2.9
456420.31,9080837.2,2.8
456428.62,9080968.78,2.8
456424.18,9080833.95,2.8
456429.4,9081066.01,2.8
456423.25,9080973.16,2.8
456417.6,9080977.45,2.7
456420.65,9081072.69,2.7
456424.82,9081069.53,2.7
456432.6,9080965.54,2.6
456416.36,9081076.08,2.6
456411.85,9081079.81,2.5
456435.97,9081191.3,2.3
456430.66,9081195.39,2.2
456425.14,9081199.39,2.2
456421.06,9081202.47,2.1
456412.75,9081208.5,2.1
456416.91,9081205.62,2.1
456424.13,9081319.28,2
456430.25,9081435.05,2
456419.64,9081322.33,2
456425.94,9081437.73,1.9
456414.56,9081444.78,1.9
456419.09,9081441.96,1.9
456432.58,9081313.7,1.8
456415.19,9081325.42,1.8
456428.36,9081316.43,1.8
456398.31,9080044.35,7.8
456403.75,9080040.02,7.7
456386.81,9080052.03,7.7
456410.14,9080034.51,7.7
456393.3,9080047.96,7.7
456410.04,9079918.98,7.1
456403.51,9079921.7,7
456398.79,9079923.45,6.9
456393.2,9079925.6,6.8
456386.51,9079928.56,6.7
456408.67,9080121.17,6.7
456403.67,9080124.36,6.5
456389.07,9080134.36,6.5
456393.93,9080130.7,6.5
456398.95,9080127.19,6.4
456410.32,9080344.27,5.6
456404.24,9080242.92,5.6
456411.02,9080235.69,5.5
456400.56,9080246.35,5.4
456406.04,9080347.12,5.3
456394.41,9080251.29,5.2
456389.71,9080254.78,5.1
456401.7,9080349.72,5.1
456396.48,9080352.61,4.9
456391.96,9080355.11,4.7
456387.53,9080357.49,4.6
456407.74,9080474.24,4.2
456390.73,9080610.11,4
456399.04,9080479.34,4
456403.23,9080600.69,4
456399.22,9080603.76,3.9
456392.77,9080482.78,3.9
456406.22,9080724.02,3.9
456410.94,9080594.92,3.8
456394.78,9080731.46,3.8
456394.79,9080607.06,3.8
456402.02,9080726.84,3.8
456390.57,9080734.22,3.7
456403.45,9080476.86,3.5
456386.28,9080736.99,3.5
456398.8,9080855.27,3.1
456394.61,9080992.45,2.9
456394.58,9080858.5,2.9
456408.29,9080847.62,2.9
456403.49,9080851.56,2.9
456399.63,9080989.82,2.9
456387.01,9080996.66,2.8
456406.78,9080985.38,2.8
456388.9,9080862.47,2.8
456410.86,9080982.4,2.6
456399.35,9081088.75,2.5
456394.42,9081092.24,2.4
456407.72,9081082.92,2.4
456397.76,9081455.52,2.3
456403.52,9081085.89,2.3
456390.28,9081095.14,2.3
456404.57,9081451.09,2.1
456393.49,9081458.48,2.1
456386.1,9081097.97,2
456389.24,9081342.78,2
456409.48,9081447.98,1.9
456396.02,9081219.79,1.9
456397.15,9081337.59,1.9
456405.72,9081331.74,1.9
456400.28,9081217.01,1.8
456389.24,9081461.36,1.8
456410.4,9081328.62,1.8
456408.6,9081211.3,1.7
456401.32,9081334.78,1.7
456404.48,9081214.16,1.6
456391.8,9081222.59,1.6
456368.18,9080063.73,9
456362.7,9080067.74,8.7
456373.61,9080059.99,8.5
456377.99,9080057.23,8.2
456382.31,9080054.68,7.9
456362.03,9080153.32,6.7
456378.86,9079932.62,6.7
