510362.3,9133111.17,12.6
510375.19,9133569.61,12.6
510366.09,9133564.78,12.6
510365.45,9132440.58,12.5
510385.38,9132458.42,12.5
510370.51,9133567.18,12.4
510380.55,9133572.25,12.4
510361.13,9132437.78,12.3
510385.27,9133574.48,12.1
510382.28,9132389.04,12
510378.15,9132494.46,11.9
510362.65,9132491.1,11.9
510383,9132496.06,11.9
510367.29,9133615.64,11.9
510377.41,9132387.01,11.8
510372.72,9132492.95,11.8
510367.8,9132491.89,11.6
510372.74,9132385.02,11.6
510368.09,9132382.94,11.4
510372.13,9133617.13,11.4
510363.56,9132380.68,11.2
510380.43,9132339.56,11
510374.33,9132336.98,10.9
510376.99,9133618.52,10.8
510369.75,9132334.81,10.7
510365.21,9132332.44,10.5
510380.27,9132276.87,10
510375.86,9132274.11,9.8
510371.11,9132271.36,9.7
510366.66,9132268.89,9.5
510382.19,9133620.26,9.5
510362.68,9133677.18,9.5
510362.3,9132266.41,9.2
510383.66,9132220.68,9.2
510379.1,9132217.84,9
510366.91,9133680.04,9
510374.66,9132215.46,8.8
510370.1,9132213.04,8.5
510363.7,9132210.03,8.2
510385.99,9132161.72,7.5
510380.6,9132163.38,7.3
510371.03,9133683.3,7.3
510375.47,9132162.58,6.6
510369.36,9132159.75,6.2
510374.8,9133686.71,4.7
510379.49,9133690.89,4
510382.97,9132109.81,3.4
510358.47,9133002.24,18.6
510352.72,9133000.1,18.5
510348.59,9132889.5,18.1
510344.25,9132886.76,18.1
510347.94,9132998.24,18
510359.61,9132896,18
510338.72,9132883.43,17.9
510354.22,9132893.52,17.8
510343.03,9132996.23,17.6
510358.43,9132828.07,17.3
510354.1,9132825.46,17.2
510349.72,9132822.84,17.2
510343.34,9132819.08,17.1
510337.59,9132993.77,17.1
510340.47,9132939.13,15.6
510347.9,9132943.64,15.4
510354.02,9133395.01,15.3
510360.45,9133398.01,15.3
510353.22,9132716.15,15.3
510358.05,9132719.74,15.3
510352.25,9132946.29,15.2
510361.06,9132951.35,15.1
510356.72,9132948.82,14.9
510348.71,9132713.28,14.9
510355.9,9132771.54,14.8
510348.02,9133391.94,14.8
510340.31,9133551.24,14.7
510337.23,9132760.93,14.7
510343.46,9133389.12,14.6
510342.3,9132763.76,14.6
510348.13,9132766.99,14.6
510345.64,9133553.9,14.5
510339.46,9133385.98,14.5
510341.79,9132709.51,14.5
510337.22,9132707.44,14.4
510342.59,9132663.62,14.3
510357.84,9132668.83,14.3
510348.73,9132665.49,14.2
510358.3,9133285.55,14.1
510337.56,9132662.25,14.1
510336.2,9133433.5,14.1
510358.99,9133337.09,14.1
510343.08,9133439.38,14
510350.47,9133556.4,14
510357.1,9133162.29,14
510356.99,9133221.76,13.9
510353.55,9133282.83,13.9
510348.82,9133444.12,13.9
510351.11,9132599.32,13.9
510344.75,9133331.42,13.8
510355.5,9133558.99,13.7
510353.28,9133447.06,13.7
510340.32,9133274.87,13.7
510350.71,9133158.61,13.7
510354.41,9133335.06,13.7
510349.22,9133280.22,13.7
510358.57,9133450.21,13.6
510358.89,9132603.58,13.6
510344.77,9133277.65,13.6
510346.75,9132596.59,13.6
510339.84,9133329.3,13.6
510360.41,9133509.1,13.6
510349.97,9133503.25,13.5
510354.48,9133506.06,13.5
510352.08,9133219.26,13.5
510344.41,9133156.01,13.5
510349.72,9133333.22,13.5
510342.39,9132594.03,13.5
510339.81,9133153.39,13.4
510344.58,9133499.43,13.4
510338.46,9133495.64,13.4
510337.83,9132591.95,13.3
510340.44,9133608.51,13.2
510350.17,9133611.07,13.2
510347.47,9133216.99,13
510345.72,9133104.58,12.9
510357.18,9133108.9,12.7
510340.97,9133102.49,12.7
510343.02,9133214.64,12.7
510352.4,9133107.15,12.6
510338.5,9133212.17,12.6
510351.6,9132539.11,12.5
510358.53,9132544.31,12.3
510356.66,9132435.06,12.3
510347.34,9132536.24,12.2
510360.11,9133613.53,12.2
510355.11,9133612.26,12.2
510346.41,9132429.05,12.1
510351.95,9132432.24,12
510347.76,9132486.96,12
510341.91,9132426.54,11.9
510343.1,9132484.65,11.9
510357.67,9132490.16,11.8
510337.43,9132424.04,11.6
510352.76,9132488.85,11.4
510343.02,9132533.54,11.4
510359.03,9132378.26,11
510353.2,9132374.87,11
510355.41,9133673.05,10.8
510348.84,9132372.4,10.8
510343.18,9132369.56,10.5
510350.56,9133670.77,10.4
510338.55,9132367.47,10.4
510360.64,9132329.82,10.3
510355.18,9132325.99,10.2
510350.01,9132321.48,10
510344.65,9133668.22,9.8
510346.57,9132317.82,9.8
510343.19,9132313.93,9.4
510339.64,9132309.92,9.2
510336.24,9132306.25,9.1
510357.94,9132263.88,9
510352.39,9132260.19,8.8
510348.29,9132257.2,8.5
510344.22,9132254.14,8.1
510358.66,9132208.22,7.8
510340.04,9132251.22,7.6
510353.69,9132206.09,7.3
510349.11,9132204.02,6.3
510344.19,9132202.7,5.3
510339.27,9132201.55,4.4
510333.78,9132880.5,17.5
510329.01,9132877.79,17.3
510334.87,9132813.79,17.1
510324.33,9132875.58,16.9
510318.91,9132873.07,16.7
510330.39,9132811.34,16.6
510332.32,9132991.73,16.6
510314.38,9132870.58,16.4
510319.78,9132926.06,16.4
510327.59,9132990.07,16.3
510314.39,9132921.97,16.3
510322.83,9132988.11,16.1
510325.74,9132809.27,16.1
510324.04,9132928.98,15.9
510320.98,9132807.5,15.7
510332.02,9132934.08,15.6
510318.16,9132985.54,15.6
510313.26,9132804.09,15.5
510311.87,9133538.15,15.3
510317.88,9133540.85,15.3
510313.41,9132983.03,15.2
510322.48,9133542.82,15
510316.46,9133368.8,15
510327.8,9133545.02,14.9
510317.9,9133318.27,14.9
510333.29,9133547.73,14.8
510313.04,9133315.44,14.8
510320.87,9133371.42,14.8
510312.15,9132747.32,14.6
510321.7,9133425,14.6
510330.57,9132757.25,14.6
510326.24,9133374.79,14.6
510325.63,9132754.77,14.6
510330.23,9133377.92,14.6
510313.75,9133258.71,14.6
510316.74,9132749.96,14.5
510322.29,9133320.73,14.4
510316.98,9133422.88,14.4
510334.05,9133381.16,14.4
510321.16,9132752.41,14.4
510326.25,9133427.18,14.3
510329.84,9133324.62,14.3
510315.62,9133598.71,14.3
510329.82,9132704.28,14.3
510311.25,9133485.5,14.3
510332.04,9133430.53,14.2
510320.98,9133601.03,14.2
510315.89,9133487.79,14.1
510318.27,9133261.22,14.1
510335.03,9133327.12,14.1
510312.18,9133420.95,14
510326.13,9133603.3,14
510325.35,9132658.18,13.9
510325.15,9132702.44,13.9
510330.44,9132659.77,13.9
510320.6,9133489.63,13.9
510330.77,9133605.19,13.8
510323.67,9133264.67,13.8
510326.02,9133490.95,13.7
510318.81,9132656.2,13.7
510315.66,9132698.84,13.6
510328.05,9133267.22,13.6
510320.36,9132700.74,13.6
510331.99,9133492.11,13.6
510312.01,9132653.06,13.6
510335.52,9133606.97,13.4
510326.15,9133146.75,13.4
510321.03,9133145.03,13.3
510335.25,9133271.61,13.3
510312.58,9133198.45,13.3
510331.83,9133149.03,13.2
510316.03,9133143.54,13.2
510332.67,9132589.98,13.2
510318.22,9133657.31,13.1
510317.3,9133200.23,13
510328.28,9132587.45,12.9
510312.81,9133088.97,12.9
510321.5,9132582.82,12.8
510314.82,9132578.1,12.7
510323.01,9133093.85,12.7
510331.77,9133208.26,12.7
510317.63,9133091.33,12.7
510322.09,9133202.42,12.6
510332.09,9133098.13,12.6
510326.53,9133205.09,12.5
510327.52,9133096.01,12.4
510335.29,9132479.33,12
510331.35,9132476.23,11.8
510326.37,9132472.46,11.8
510330.19,9132527.05,11.7
510335.77,9132529.75,11.6
510324.36,9132523.91,11.6
510319.04,9132467.44,11.6
510314.34,9132464.15,11.5
510319.67,9132521.32,11.4
510313.17,9132518.07,11.3
510332.98,9132421.51,11.2
510335.87,9133665.26,11.1
510328.56,9132419,11.1
510323.12,9132416.02,10.9
510316.55,9132412.31,10.7
510312.1,9132409.77,10.4
510327.39,9133661.91,10.2
510333.92,9132365.52,10.1
510322.76,9133659.73,10
510327.17,9132363.32,10
510322.23,9132362.3,9.7
510317.22,9132361.6,9.5
510332.2,9132302.14,8.9
510327.74,9132298.23,8.6
510323.76,9132295.07,8.4
510319.55,9132292.03,8.1
510315.39,9132289.22,7.7
510335.46,9132248.97,7.4
510330.64,9132247.39,6.6
510325.86,9132245.58,6
510321.32,9132243.39,5.3
510316.41,9132242.17,4.6
510311.38,9132241.3,3.9
510334.32,9132200.51,3.7
510329.55,9132198.64,2.8
510325.75,9132195.1,2
510322.27,9132191.33,0.6
510318.79,9132187.31,-0.6
510314.23,9132184.97,-1.7
510288.39,9132904.47,16.6
510296.05,9132909.38,16.6
510305.62,9132915.4,16.3
510310.39,9132918.84,16.3
510300.3,9132912.03,16.3
510309.9,9132867.9,16.1
510305.53,9132865.3,16
510301.16,9132862.72,15.8
510295.01,9132858.21,15.5
510291.68,9133356.34,15.3
510288.94,9133470.14,15.3
510296.33,9133358.71,15.3
510304.37,9133362.53,15.2
510298.6,9133250.1,15.2
510288.15,9132852.02,15.1
510309.59,9133365.07,15.1
510295.26,9133475.27,15
510308.63,9132802,15
510292.01,9133246.41,15
510307.22,9133312.05,15
510306.85,9133255.38,15
510304.92,9133534.87,14.9
510303.89,9132800.14,14.9
510298.29,9132974.85,14.9
510304.26,9132978.42,14.8
510300.29,9133479.07,14.8
510308.82,9132980.6,14.7
510294.12,9132971.66,14.7
510287.54,9132966.25,14.7
510296.48,9132796.66,14.6
510301.54,9133308.96,14.6
510300.42,9133532.64,14.5
510294.18,9133191.15,14.5
510305.27,9133482.18,14.5
510291.77,9132794.5,14.5
510287.4,9133188.54,14.5
510296.71,9133306.28,14.5
510298.14,9133592.52,14.4
510291.54,9133590.59,14.4
510304.66,9132743.9,14.4
510286.53,9132792.09,14.3
510297,9132740.92,14.3
510300.33,9133193.93,14.3
510287.54,9133243.73,14.2
510292.34,9133303.78,14.2
510295.97,9133530.25,14.1
510308.11,9133595.73,14.1
510303.08,9133594.02,14
510292.36,9132738.55,13.9
510287.99,9133301.22,13.8
510304.98,9133195.8,13.8
510291.38,9133527.61,13.8
510307.49,9132650.87,13.7
510300.35,9133416.23,13.7
510307.38,9133419.09,13.7
510287.62,9132736.37,13.6
510286.97,9133524.98,13.6
510294.86,9133413.75,13.5
510290.86,9133135.17,13.5
510310.46,9133652.11,13.5
510287.22,9133076.45,13.4
510308.01,9132696.28,13.4
510297.44,9133138.26,13.4
510294.58,9133079.48,13.3
510302.13,9133140.06,13.3
510296.17,9132644.9,13.3
510287.88,9132639.23,13.3
510306.48,9133649.07,13.2
510309.39,9133142.08,13.2
510292.28,9133637.6,13.2
510303.26,9132694.54,13.2
510300.52,9133644.06,13.2
510290.26,9133411.63,13.1
510296.56,9133640.86,13.1
510295.88,9132690.81,13
510300.64,9133082.3,13
510302.88,9132648.6,13
510287.81,9133634.3,13
510291.61,9132688.12,12.9
510286.86,9132685.03,12.9
510306.63,9133085.5,12.8
510310.62,9132575.29,12.4
510302.59,9132570.61,12.2
510298.04,9132568.13,11.9
510286.47,9132560.07,11.8
510293.73,9132565.4,11.8
510301.81,9132513.21,11.4
510310.04,9132461.16,11.3
510306.38,9132515.25,11.3
510293.14,9132509.72,11.2
510305.77,9132458.33,11.1
510301.39,9132455.62,10.8
510296.96,9132453.21,10.6
510292.37,9132450.96,10.4
510287.78,9132448.94,10.1
510307.48,9132407.11,10.1
510303.1,9132404.55,9.9
510298.69,9132401.95,9.6
510294.38,9132399.32,9.4
510310.34,9132359.97,9.2
510289.98,9132396.49,9.1
510305.65,9132358.16,8.8
510301.42,9132355.46,8.6
510297.51,9132352.26,8.4
510293.56,9132348.56,8.2
510289.82,9132345.22,7.9
510311,9132286.54,7.3
510306.53,9132284.16,6.1
510301.84,9132282.42,5.5
510296.76,9132280.53,5
510292.1,9132278.65,4.3
510287.39,9132276.88,3.6
510306.5,9132239.87,3
510301.82,9132237.9,2.1
510298.05,9132234.57,1
510296.26,9132229.88,0
510296.21,9132224.87,-0.8
510283.27,9132901.5,16.6
510278.57,9132899.14,16.4
510274.07,9132896.81,16.3
510263.81,9133344.95,16.2
510269.63,9132894.4,16
510262.58,9132890.06,15.9
510268.46,9133346.82,15.8
510273.36,9133348.51,15.7
510264.68,9132834.75,15.7
510278.31,9133350.51,15.6
510269.15,9132837.23,15.5
510283.07,9133352.51,15.5
510274.24,9132840.38,15.5
510284.35,9133466.74,15.5
510276.72,9133461.41,15.5
510279.55,9132844.53,15.4
510271.24,9133458.52,15.2
510273.31,9132955.7,15.2
510264,9132948.74,15.2
510283.38,9132847.75,15.2
510268.03,9132951.9,15.2
510277.53,9132958.53,15
510283.54,9132963.07,15
510264.19,9133454.06,14.9
510262.28,9133576.98,14.8
510266.4,9133580.25,14.7
510261.35,9133064.87,14.7
510270.25,9133583.54,14.6
510281.93,9133186.6,14.6
510277.17,9133184.59,14.4
510267.52,9132783.33,14.4
510272.39,9133182.23,14.4
510263.67,9133509.75,14.4
510266.11,9133066.74,14.4
510272.95,9132785.67,14.4
510283.89,9133588.53,14.3
510276.71,9133586.96,14.3
510261.9,9132781.05,14.3
510266.13,9133178.69,14.2
510270.95,9133068.67,14.2
510269.38,9133513.61,14.1
510280.94,9132789.21,14.1
510276.02,9133071.02,14.1
510261.64,9133176.08,14
510273.64,9133516.42,13.9
510283.65,9133298.38,13.8
510282.45,9133074.23,13.8
510278.44,9132731.82,13.6
510278.02,9133519.3,13.6
510281.16,9133131.43,13.6
510271.94,9132728.3,13.6
510282.45,9133241.29,13.6
510274.65,9133128.67,13.5
510261.68,9133121.51,13.5
510267.38,9132725.76,13.5
510268.7,9133125.56,13.5
510267.94,9133286.41,13.5
510283.04,9132734.11,13.5
510266.28,9133625.46,13.4
510271.13,9133627.07,13.4
510282.59,9133522.26,13.3
510276.63,9133239.02,13.3
510285.86,9133133.15,13.3
510273.68,9133291.28,13.3
510279.31,9133295.54,13.2
510276.12,9133628.66,13.2
510282.21,9133631.11,13.1
510275.97,9133405.06,13
510285.65,9133409.52,13
510280.71,9132634.01,13
510264.34,9133399.46,12.9
510281.05,9133407.46,12.8
510281.65,9132681.19,12.8
510270.75,9133236.53,12.8
510271.56,9132674.63,12.8
510276.68,9132630.82,12.8
510269.85,9133402.23,12.8
510265.09,9132671.01,12.7
510266.05,9133234.44,12.7
510277.39,9132678.28,12.6
510261.48,9133231.83,12.6
510272.61,9132627.76,12.6
510268.24,9132624.61,12.5
510264.11,9132621.41,12.4
510282.39,9132557.11,11.6
510278.28,9132554.16,11.4
510273.91,9132551.68,11.3
510284.32,9132506.71,11.3
510279.59,9132504.98,11.1
510267.9,9132548.72,11.1
510263.3,9132546.6,11
510274.81,9132503.38,10.9
510270.09,9132501.57,10.7
510265.43,9132499.51,10.5
510283.12,9132446.91,9.9
510278.41,9132445.05,9.8
510273.7,9132443.23,9.5
510268.87,9132441.36,9.2
510263.78,9132439.43,9.1
510285.63,9132393.68,8.8
510281.35,9132390.86,8.6
510277.14,9132388.04,8.3
510272.76,9132385.09,8.1
510268.48,9132382.34,7.9
510264.07,9132379.54,7.6
510286.06,9132341.81,7.5
510282.27,9132338.45,7
510278.4,9132335.14,6.7
510274.38,9132331.94,6.1
510270.21,9132329.12,5.5
510265.8,9132326.72,4.7
510282.76,9132274.98,3
510278.33,9132272.66,2
510237.62,9133331.98,17.8
510242.14,9133334.66,17.5
510246.9,9133337.23,17.2
510251.4,9133339.51,16.8
510256.6,9133341.92,16.4
510237.19,9132929.12,15.8
510258.08,9132830.41,15.7
510243.03,9132932.65,15.7
510258.33,9132887.18,15.6
510251.7,9132825.88,15.5
510248.76,9132936.38,15.4
510245.16,9132821.13,15.4
510238.36,9133497.13,15.3
510255.17,9132941.48,15.3
510246.04,9133057.14,15.2
510244.46,9133499.07,15.2
510253.89,9132884.65,15.2
510241.56,9133054.59,15.2
510260.07,9132945.61,15.2
510250.77,9133059.82,15.1
510247.4,9132881.06,15.1
510240.41,9132818.15,15
510256.03,9133062.48,14.9
510239.87,9133273.88,14.9
510248.98,9133501.29,14.9
510242.98,9132878.64,14.8
510253.85,9133503.67,14.8
510259.91,9133451.2,14.8
510253.03,9133570.49,14.7
510257.32,9133573.35,14.7
510247.96,9132775.05,14.7
510245.56,9133275.97,14.6
510255.51,9133448.52,14.6
510258.22,9133506.2,14.5
510250.37,9133277.84,14.4
510243.52,9132772.59,14.3
510252.55,9132777.17,14.3
510248.71,9133444.09,14.2
510245.07,9133565.83,14.2
510257.24,9132779.19,14.1
510239.26,9132769.65,14.1
510241.28,9133386.45,14.1
510244.28,9133616.99,14.1
510255.83,9133280.11,14
510238.27,9133614.05,14
510248.58,9133169.05,13.9
510257.25,9133173.61,13.9
510242.94,9133439.38,13.9
510242.3,9133166.23,13.9
510239.69,9133562.93,13.9
510246.8,9133389.53,13.8
510249.07,9133619.07,13.8
510260.45,9133282.06,13.8
510237.11,9133435.61,13.8
510246.43,9133115.46,13.7
510254.03,9133620.97,13.7
510239.33,9133112.09,13.7
510256.25,9133119.02,13.6
510251.25,9133117.07,13.5
510258.76,9133622.78,13.5
510260.64,9132721.52,13.5
510251.69,9133392.49,13.3
510251.81,9132714.98,13.3
510256.24,9132718.33,13.2
510246.89,9132711.61,13.1
510242.65,9132708.84,13.1
510256.07,9133395,13
510260.54,9132668.77,13
510255.59,9132666.77,13
510239.98,9132660.28,12.8
510241.26,9133220.17,12.8
510250.84,9132665.17,12.8
510252.36,9133226.07,12.7
510244.65,9132662.51,12.7
510246.66,9133222.89,12.6
510256.69,9133228.92,12.4
510260.09,9132618.25,12.3
510255.98,9132615.29,12.1
510250.96,9132611.76,11.9
510246.32,9132609.56,11.8
510241.44,9132607.6,11.4
510257.87,9132544.2,10.8
510251.68,9132541.74,10.8
510246.45,9132539.59,10.7
510241.8,9132537.63,10.4
510258.46,9132496.12,10.2
510252.94,9132492.89,10.1
510248.61,9132490.09,9.9
510244.49,9132487.15,9.8
510240.37,9132484.04,9.5
510236.46,9132480.83,9.3
510257.57,9132436.99,9
510252.88,9132434.98,8.9
510248.25,9132432.92,8.7
510243.65,9132430.9,8.1
510238.94,9132429.15,7.7
510259.74,9132376.76,7.4
510255.33,9132374.08,7.2
510250.87,9132371.7,6.8
510246.25,9132369.57,6
510240.87,9132367.44,4.5
510261.05,9132325.06,4.1
510236.29,9132365.33,3.8
510255.96,9132324.48,3
510251.02,9132323.48,1.9
510246.24,9132321.95,0.7
510242.03,9132319.25,-0.6
510240.75,9132309.47,-2.4
510240.27,9132314.5,-2.5
510244.84,9132300.03,-2.7
510242.42,9132304.5,-3.5
510229.27,9133326.05,17.8
510224.81,9133322.75,17.5
510217.03,9133488.59,16.7
510221.63,9133490.74,16.6
510216.28,9132919.19,16.3
510225.38,9132923.08,16.2
510230.92,9132925.81,16.1
510226.24,9133493.05,15.9
510220.64,9133319.99,15.7
510213.87,9133037.67,15.6
510232.21,9133495.75,15.4
510218.22,9133040.95,15.4
510234.08,9133050.64,15.3
510219.94,9133604.3,15.3
510213.74,9133600.9,15.3
510222.92,9133044.14,15.2
510232.32,9133270.61,15.2
510229.26,9133047.71,15.1
510224.36,9133606.68,15
510227.7,9133268.22,14.7
510234.73,9132814.77,14.7
510229.27,9133609.27,14.7
510230.15,9132812.1,14.4
510235.33,9132874.45,14.4
510228.95,9132871.31,14.4
510216.19,9133317.36,14.4
510218.81,9132806.22,14.4
510225.64,9132809.57,14.4
510215.52,9133377.39,14.4
510224.33,9132868.98,14.4
510218.24,9132865.65,14.4
510233.68,9133611.74,14.3
510223.72,9133380.2,14.3
510213.12,9133094.32,14.2
510212.93,9133550.2,14.2
510221.8,9132758.94,14.1
510220.88,9133553.08,14.1
510228.5,9133381.76,14.1
510223.15,9133265.94,14.1
510226.56,9132761.49,14.1
510214.22,9132803.81,14.1
510226.39,9133158.78,14
510218.25,9133098.84,14
510234.94,9133109.65,14
510225.6,9133555.01,14
510233.42,9133383.3,14
510219.82,9133155.2,13.9
510217.12,9132757,13.9
510222.08,9133102.1,13.9
510230.83,9133161.23,13.9
510232.49,9132765.21,13.9
510214.17,9133151.85,13.9
510235.65,9133163.61,13.9
510229.18,9133106.43,13.8
510235.24,9133560.4,13.6
510218.71,9133263.63,13.6
510230.04,9133557.42,13.6
510232.29,9133433.78,13.5
510213.37,9133425.98,13.3
510218.03,9133428.02,13.3
510227.15,9133431.87,13.2
510214.1,9133207.66,13.2
510214.03,9133261.03,13.1
510234.55,9133217.04,13
510234.98,9132703.97,12.9
510234.41,9132657.48,12.8
510229.36,9133214.78,12.7
510228.22,9132700.15,12.7
510219.25,9133210.01,12.6
510223.6,9132697.91,12.6
510218.7,9132695.74,12.6
510223.94,9133212.27,12.5
510229.91,9132655.2,12.4
510225.34,9132652.82,12.2
510220.86,9132650.44,12.1
510214.19,9132646.99,11.9
510235.58,9132605.06,11.3
510228.67,9132602.04,11.1
510224.11,9132599.61,11.1
510215.69,9132594.02,11
510219.81,9132597.04,10.9
510211.62,9132590.82,10.8
510233.6,9132533.59,10.3
510229.11,9132531.39,10.2
510224.56,9132529.17,9.9
510220.02,9132526.79,9.7
510215.71,9132524.19,9.5
510211.61,9132521.31,9.2
510232.46,9132477.75,9
510228.16,9132475.11,8.7
510222.19,9132471.86,8.4
510217.41,9132469.94,8.1
510212.5,9132468.35,7.7
510231.63,9132427.32,7.5
510226.61,9132426.88,7
510221.53,9132426.43,6.1
510216.49,9132426.11,5.6
510211.44,9132425.82,4.9
510231.8,9132363.08,3.1
510209.54,9133484.54,17.2
510204.34,9133481.86,16.8
510199.7,9133479.5,16.4
510209.6,9132916.71,16.3
510190.63,9133019.7,16.3
510204.8,9132914.79,16.3
510186.5,9133016.64,16.1
510200.07,9132912.89,16.1
510194.53,9132910.66,16.1
510202.57,9133028.75,16
510207.67,9133032.8,15.9
510196.36,9133023.88,15.9
510195.28,9133477.12,15.8
510189.86,9132908.85,15.7
510190.73,9133474.58,15.3
510186.44,9133471.95,15.1
510194.66,9133370.15,15
510187.48,9132850.61,14.7
510201.11,9133371.96,14.7
510197.07,9132855,14.7
510209.11,9133598.99,14.7
510193.5,9133539.23,14.6
510210.25,9133375.47,14.5
510210.03,9132861.34,14.5
510192.18,9132852.75,14.5
510203.01,9132857.81,14.5
510204.28,9133597.37,14.5
510190.23,9133077.31,14.4
510199.32,9133543.42,14.3
510199.53,9133083.69,14.3
510194.55,9133080.23,14.3
510206.45,9133548.31,14.2
510208.82,9133090.69,14.1
510199.26,9133595.42,14.1
510198.69,9132795.65,14
510193.02,9133142.1,14
510203.58,9133086.64,14
510210.97,9133314.78,14
510209.72,9132801.45,14
510209.02,9133149.16,13.9
510203.87,9132798.65,13.9
510198.9,9133144.94,13.9
510194.64,9133593.33,13.8
510203.64,9133146.84,13.8
510210.55,9132753.57,13.8
510200.54,9132747.33,13.8
510194.25,9132793.33,13.8
510204.84,9132750.35,13.7
510202.39,9133311.21,13.6
510189.18,9132790.91,13.6
510196.55,9133420.77,13.6
510194.35,9133307.91,13.6
510201.32,9133422.29,13.5
510208.54,9133424.49,13.5
510191.6,9133419.19,13.4
510196.48,9132744.12,13.3
510190.11,9133590.88,13.2
510192.66,9132740.78,13.2
510187.81,9132736.11,13.2
510203.34,9133255.61,12.9
510209.61,9133258.65,12.9
510198.85,9133253.38,12.9
510209.26,9133205.4,12.7
510194.23,9133251.1,12.6
510189.02,9133194.34,12.6
510203.2,9133202.68,12.6
510194.41,9133197.66,12.5
510210.22,9132692.47,12.5
510198.8,9133200.22,12.4
510205.08,9132690.76,12.3
510199.1,9132688.84,12.1
510208.1,9132643.16,11.9
510189.96,9132685.9,11.8
510203.89,9132640.4,11.7
510199.81,9132637.43,11.3
510195.74,9132634.46,11.1
510191.47,9132631.74,10.8
510187.34,9132628.76,10.7
510207.83,9132587.38,10.6
510193.42,9132571.28,10.5
510201.69,9132579.18,10.5
510204.69,9132583.32,10.5
510187.34,9132567.2,10.5
510198.13,9132575.15,10.5
510207.38,9132518.3,9
510202.97,9132515.76,8.7
510198.25,9132513.87,8.2
510193.34,9132512.58,7.9
510188.34,9132511.72,7.5
510207.58,9132467.25,7.3
510202.51,9132466.92,6.6
510197.55,9132465.95,6.1
510192.85,9132464.03,5.2
510206.42,9132425.31,4.1
510201.42,9132424.73,2.9
510196.51,9132423.76,1.7
510193.08,9132420.05,0.4
510195.58,9132404.74,-0.4
510192.04,9132415.05,-0.5
510198.01,9132399.74,-0.5
510193.3,9132410.1,-1
510164.01,9133515.5,16.5
510161.67,9133352.5,16.4
510166.39,9133356.02,16.1
510167.83,9133518.9,15.9
510171.83,9133359.58,15.8
510181.55,9133013.73,15.8
510177.02,9133362.63,15.7
510179.16,9133007.02,15.7
510181.5,9133365.35,15.6
510171.49,9133522.32,15.6
510175.59,9133010.61,15.4
510181.56,9133001.89,15.4
510175.51,9133525.76,15.4
510185.99,9133367.59,15.4
510185.13,9132907.09,15.3
510171.18,9133008.18,15.3
510178.5,9132904.54,15.2
510179.44,9133529.02,15.1
510173.7,9132902.44,15.1
510166.39,9133005.62,15
510183.52,9132997.21,14.9
510185.62,9133533.56,14.9
510184.83,9132978.95,14.8
510161.68,9133003.46,14.8
510185.57,9132990.32,14.8
510182.21,9133469.16,14.7
510166.12,9133295.08,14.6
510181.5,9132847.87,14.6
510168.45,9132899.99,14.6
510185.9,9132983.85,14.6
510170.83,9133297.22,14.5
510163.63,9132897.97,14.5
510176.83,9132845.82,14.4
510162.72,9133060.48,14.4
510177.82,9133466.55,14.4
510168.57,9133064.24,14.3
510176.69,9133299.98,14.3
510163.65,9133573.79,14.3
510183.38,9132973.54,14.3
510172.29,9132843.15,14.3
510162.81,9133125.2,14.3
510181.44,9132967.73,14.3
510165.1,9132839.08,14.2
510172.47,9132958.14,14.2
510181.34,9133071.92,14.2
510173.34,9133464.01,14.2
510185.57,9133137.95,14.1
510166.03,9132954.56,14.1
510181.26,9133302.19,14.1
510162.2,9133405.98,14
510176.75,9132960.77,14
510166.79,9133408.82,14
510168.64,9133461.52,14
510176.3,9133068.94,14
510175.8,9133132,13.9
510161.31,9132951.9,13.9
510170.06,9133129.09,13.8
510181.22,9133135.33,13.8
510185.78,9133304.53,13.8
510168.41,9133576.41,13.8
510164.09,9133459.3,13.8
510184.43,9133416.32,13.7
510171.18,9133411.28,13.7
510175.84,9133413.4,13.7
510172.79,9133579.06,13.6
510177.55,9133582.23,13.5
510184.87,9133587.66,13.5
510181.41,9132787.66,13.4
510176.41,9132785.46,13.2
510171.39,9132783.44,13.2
510165.73,9132781.32,13.2
510178.49,9132728.51,13.1
510183.31,9132731.94,13
510179.71,9133243.95,13
510185.38,9133246.74,12.9
510172.35,9133181.77,12.8
510173.11,9133240.79,12.8
510173.86,9132726.28,12.7
510166.67,9133178.49,12.7
510167.85,9133238.49,12.7
510180.31,9133187.93,12.6
510184.3,9133190.95,12.5
510176.38,9133184.79,12.5
510164.07,9132723.24,12.4
510163.06,9133236.34,12.4
510168.98,9132724.74,12.4
510185.23,9132684.27,11.6
510179.55,9132682.11,11.4
510163.17,9132675.4,11.2
510173.25,9132679.68,11.1
510168.63,9132677.76,10.9
510183.31,9132625.75,10.2
510183.34,9132564.1,9.9
510179.26,9132622.8,9.9
510175.18,9132619.7,9.5
510179.71,9132560.64,9.5
510171.14,9132616.47,9.2
510175.67,9132557.18,9
510166.98,9132613.28,8.8
510171.22,9132554.31,8.5
510162.89,9132610.35,8.5
510166.51,9132552.2,8.2
510161.73,9132550.28,7.6
510183.32,9132511.08,7
510178.24,9132510.76,6.5
510173.22,9132510.97,6.1
510168.46,9132512.62,5.3
510163.69,9132514.31,4.9
510161.12,9132487.8,1.3
510137.77,9133338.42,17.3
510143.54,9133341.55,17.2
510148.11,9133344.23,17.1
510152.87,9133347.16,16.9
510155.15,9133509.56,16.6
510157.36,9133349.81,16.6
510149.36,9133506.18,16.6
510144.65,9133504.09,16.1
510139.04,9133501.73,15.7
510155.63,9133000.99,14.9
510155.22,9133290.56,14.9
510149.95,9133288.35,14.8
510142.97,9133112.6,14.8
510160.3,9133292.7,14.8
510150.83,9132999.33,14.6
510142.92,9133049.14,14.6
510136.23,9133558.59,14.5
510154.07,9133119.91,14.5
510143.13,9133394.47,14.5
510141.55,9133562.36,14.4
510144.61,9133285.91,14.4
510145.33,9132997.55,14.4
510137.98,9133282.42,14.4
510148.01,9133051.67,14.4
510138.16,9133046.71,14.3
510138.39,9133109.51,14.3
510157.87,9133403.26,14.3
510148.51,9133397.26,14.3
510153.82,9133054.75,14.3
510140.41,9132996.13,14.3
510147.36,9133115.26,14.3
510152.87,9133399.87,14.3
510160.26,9132836.7,14.2
510147.88,9133566.26,14.2
510158.37,9133122.58,14.2
510158.28,9133571.23,14.2
510153.52,9133569.24,14.1
510150.25,9132891.6,14.1
510156.79,9132949.33,14.1
510158.92,9132895.84,14.1
510141.97,9132941.55,14
510137.31,9132884.12,14
510158.44,9133057.73,14
510146.66,9132943.86,13.9
510155.68,9132834.66,13.9
510150.85,9132832.37,13.9
510151.16,9132946.24,13.8
510145.21,9132889.19,13.8
510155.31,9133455.49,13.7
510145.99,9132830.2,13.6
510149.56,9133453.52,13.6
510144.31,9133451.57,13.6
510139.2,9133449.49,13.5
510140.76,9132827.8,13.4
510145.23,9133168.19,13.1
510153.79,9133171.88,13
510160.49,9132779.57,13
510140.38,9133166.56,12.9
510155.56,9132777.93,12.9
510150.75,9132776.5,12.8
510160.33,9133175.07,12.7
510158.43,9133234.33,12.7
510145.15,9132775.19,12.6
510137.5,9132773.1,12.4
510142.78,9133227.59,12.4
510150.72,9133231.01,12.3
510159.31,9132721.7,12.1
510137.9,9133225.21,12.1
510154.17,9132720.07,11.9
510149.3,9132718,11.9
510144.72,9132715.76,11.6
510140.32,9132713.36,11.3
510158.41,9132673.33,10.9
510152.71,9132670.91,10.7
510148.03,9132668.54,10.5
510143.61,9132665.85,10.4
510139.36,9132662.99,10.3
510153.51,9132605.35,8.4
510158.39,9132607.67,8.4
510148.23,9132603.15,8.3
510141.97,9132600.96,8
510137.22,9132599.26,7.3
510156.88,9132548.26,7.1
510152.07,9132546.6,6.4
510146.93,9132544.84,5.1
510158.61,9132514.34,3.9
510142.12,9132543.14,3.9
510137.13,9132541.94,2.7
510153.93,9132512.53,2.7
510151.32,9132508.24,1.6
510157.25,9132494.29,1.3
510151.84,9132503.23,1.2
510154.1,9132498.59,1.1
510133.36,9133335.66,17.2
510128.11,9133331.85,17
510124.11,9133328.68,16.3
510111.18,9133539.41,15.8
510133.94,9133499.49,15.5
510120.07,9133325.45,15.5
510117.19,9133544.04,15.5
510122.34,9133547.36,15
510115.95,9133322.25,15
510117.01,9133383.96,15
510126.92,9133551.09,14.9
510127.18,9133387.8,14.9
510134.76,9133390.97,14.8
510128.19,9133496.94,14.8
510122.06,9133385.92,14.8
510111.83,9133319.16,14.7
510131.19,9133554.46,14.7
510123.25,9133039.77,14.6
510128.8,9133042.36,14.6
510121.81,9133493.66,14.5
510127.09,9133101.93,14.5
510118.21,9133036.96,14.5
510133.65,9133044.51,14.4
510122.52,9133099.76,14.3
510115.23,9133096.84,14.3
510134.12,9133106.67,14.3
510119.83,9132990.68,14.2
510130.86,9132994.05,14.2
510116.96,9133491.25,14.1
510124.7,9132991.85,14
510135.94,9132938.58,13.9
510128.47,9132935.39,13.9
510114.76,9132990.4,13.9
510132.3,9132880.32,13.8
510111.46,9133488.59,13.8
510123.88,9132933.28,13.8
510131.06,9133278.1,13.7
510111.3,9133154.11,13.7
510128.23,9132877.04,13.7
510117.07,9132929.78,13.7
510117.48,9133158.06,13.6
510127,9133275.12,13.6
510118.23,9133438.97,13.5
510112.6,9132927.45,13.5
510124.47,9132873.69,13.5
510131.68,9133446.29,13.4
510122.53,9133441.57,13.4
510122.91,9133272.24,13.4
510122.22,9133160.55,13.4
510127.03,9133444.06,13.3
510118.05,9132868.97,13.3
510113.41,9132865.98,13.2
510118.45,9133269.39,13.1
510127.34,9133162.53,13.1
510135.31,9133165.32,13.1
510132.4,9132823.77,13.1
510113.94,9133267,13.1
510124.5,9132819.96,12.9
510118.99,9132817.16,12.6
510127.85,9133219.7,12.5
510113.83,9132814.43,12.4
510115.63,9133212.58,12.4
510123.44,9133217.08,12.4
510131.88,9132771.54,12.3
510132.57,9133222.41,12
510126.92,9132769.92,11.9
510122.23,9132767.98,11.7
510117.7,9132765.68,11.4
510113.17,9132762.86,11.2
510136,9132710.7,11
510131.63,9132707.83,10.8
510127.33,9132705.07,10.6
510123.02,9132702.37,10.4
510118.68,9132699.71,10
510133.91,9132659.19,9.8
510114.39,9132697.13,9.7
510129.1,9132657.03,9.6
510124.74,9132654.43,9.1
510120.58,9132651.52,8.6
510115.93,9132648.69,8.3
510111.5,9132645.77,7.7
510132.51,9132597.45,6.7
510127.87,9132595.36,6
510123.31,9132593.2,5.2
510118.8,9132590.83,4.3
510114.36,9132588.48,3.2
510131.89,9132541,1.4
510126.9,9132539.99,0.6
510121.94,9132538.3,0
510117.62,9132535.65,-0.2
510113.7,9132530.84,-0.2
510111.25,9132526.39,-0.6
510095.55,9133531.81,16.5
510090.03,9133529.23,16.5
510100.67,9133533.91,16.3
510106.68,9133536.6,16.2
510089.5,9133370.8,15.2
510108.18,9133380.62,15.1
510097.4,9133375.57,15.1
510097.86,9133088.32,15
510103.22,9133378.52,14.9
510107.71,9133316.2,14.6
510093.26,9133086.32,14.6
510101.04,9133311.73,14.4
510092.67,9133307.23,14.4
510109.48,9133093.98,14.4
510104.35,9133091.52,14.3
510099.22,9133146.63,14.1
510110.9,9133032.89,14.1
510104.36,9133029.69,14.1
510091.64,9133142.78,14.1
510098.37,9133026.5,14
510087.67,9133423.25,13.9
510105.18,9133431.95,13.9
510100.63,9133429.71,13.8
510095.18,9133427.11,13.8
510110.19,9133434.47,13.7
510092.36,9133023.03,13.7
510106.01,9133150.43,13.6
510109.68,9132990.45,13.6
510101.31,9132990.12,13.6
510105.47,9133485.61,13.6
510107.01,9132924.68,13.5
510087.17,9133019.74,13.5
510101.91,9132922.22,13.4
510095.64,9132987.69,13.3
510089.65,9133257.2,13.3
510099.1,9133482.59,13.3
510095.37,9133259.75,13.3
510095.27,9132918.95,13.3
510101.6,9133262.18,13.1
510092.24,9133479.89,13
510108.89,9132863.42,13
510106.66,9133264.02,13
510089.53,9132916.12,13
510101.97,9132859.89,12.9
510097.4,9132857.55,12.7
510106.74,9133207.62,12.5
510092.77,9132855.34,12.5
510095.2,9133200.36,12.4
510087.57,9132852.95,12.3
510090.59,9133197.89,12.2
510102.32,9133204.89,12.1
510109.47,9132811.87,12.1
510104.91,9132809.14,11.9
510099.29,9132805.34,11.6
510095.11,9132802.4,11.4
510090.72,9132799.52,11.1
510108.93,9132760.09,11
510086.42,9132796.84,10.8
510104.73,9132757.17,10.6
510100.49,9132754.35,10.3
510096.1,9132751.84,10
510091.35,9132749.06,9.6
510087.02,9132746.37,9.4
510109.96,9132694.66,9.3
510105.34,9132692.68,8.9
510100.56,9132690.97,8.4
510095.66,9132689.51,8
510090.85,9132687.77,7.4
510107.85,9132642.35,7.1
510086.28,9132685.71,6.6
510104.12,9132638.44,6.4
510100.83,9132634.59,5.4
510097.25,9132630.87,4
510093.19,9132627.68,2.8
510109.53,9132586.71,1.9
510088.82,9132625.09,1.7
510104.65,9132585.21,0.8
510099.78,9132584.03,0.1
510094.83,9132583.05,-0.4
510089.88,9132582.3,-1
510107.83,9132522.57,-1.3
510103.52,9132519.91,-1.9
510099.01,9132517.62,-3
510094.12,9132515.81,-5.5
510085.46,9133527,15.9
510065.32,9133353.72,15.6
510079.98,9133524.07,15.5
510071.31,9133357.99,15.4
510080.16,9133364.64,15.3
510075.39,9133360.99,15.2
510084.29,9133367.58,15
510075.6,9133521.58,15
510064.1,9133072.36,14.7
510073.49,9133076.76,14.7
510077.97,9133079.19,14.6
510069.51,9133294.66,14.6
510064.75,9133292.4,14.6
510079.55,9133300.12,14.5
510084.62,9133082.45,14.5
510068.9,9133074.66,14.5
510085.04,9133303.23,14.4
510072.61,9133134.03,14.3
510083.53,9133138.92,14.3
510074.79,9133297.39,14.3
510066.25,9133411.14,14.3
510062.7,9133129.52,14.2
510071.32,9133518.85,14.2
510078.37,9133136.63,14.2
510073.46,9133414.79,14.1
510061.77,9133408.71,14.1
510067.28,9133131.57,14
510078.05,9133417.33,14
510066.82,9133516.47,13.9
510081.43,9133016.48,13.4
510061.99,9133239.93,13.4
510066.62,9133242.65,13.3
510075.87,9133249.02,13.3
510083.3,9133253.66,13.3
510072.68,9133012.79,13.3
510069.43,9133472.05,13.2
510070.85,9133245.6,13.1
510066.48,9133010.28,13.1
510084.82,9132913.61,12.9
510084.56,9133477.23,12.9
510075.26,9133474.29,12.9
510064.16,9133470.11,12.9
510065.4,9133184.88,12.7
510080.4,9132911.15,12.6
510082.02,9133193.38,12.5
510072.98,9133188.69,12.5
510076.01,9132908.68,12.5
510077.57,9133191.07,12.5
510071.65,9132906.16,12.3
510066.01,9132903.16,12.2
510061.51,9132900.61,12.1
510082.91,9132850.87,12.1
510078.29,9132848.82,11.8
510073.73,9132846.67,11.5
510069.11,9132844.36,11.2
510064.64,9132841.99,11
510082.18,9132794.01,10.6
510077.75,9132791.65,10.2
510073.11,9132789.49,9.9
510068.53,9132787.15,9.6
510064.1,9132784.6,9.3
510082.85,9132743.52,8.9
510078.77,9132740.54,8.5
510074.63,9132737.5,8.2
510070.59,9132734.49,7.8
510066.3,9132731.65,7.3
510061.79,9132728.88,7
510081.8,9132683.48,5.9
510077.47,9132680.89,5.1
510073.48,9132677.68,4.1
510069.82,9132674.2,2.9
510066.4,9132670.52,1.9
510062.39,9132667.52,0.8
510084.21,9132622.89,0.5
510079.81,9132620.5,-0.2
510075.25,9132618.42,-1.1
510070.45,9132616.87,-1.7
510084.9,9132581.23,-1.8
510084.76,9132566.96,-2.6
510065.5,9132615.7,-2.6
510080.47,9132578.75,-3.3
510080.82,9132570.11,-3.5
510060.97,9133350.88,15.4
510056.37,9133347.95,15.3
510050.06,9133344,15.1
510045.36,9133341.56,14.9
510039.76,9133338.93,14.8
510052.24,9133286.31,14.6
510046.87,9133283.72,14.6
510042.01,9133281.42,14.6
510036.56,9133279.02,14.5
510060.16,9133290.24,14.5
510052.51,9133065.94,14.3
510059.69,9133069.98,14.3
510058.12,9133127.28,14.2
510049.44,9133122.17,14.1
510043.6,9133117.72,14.1
510048.09,9133063.34,14
510041.02,9133399.08,14
510055.06,9133405.62,13.9
510043.64,9133060.76,13.9
510038.71,9133114.38,13.9
510039.27,9133058.32,13.8
510047.33,9133402.07,13.8
510059.22,9133512.75,13.6
510053.1,9133509.91,13.3
510055.54,9133236.51,13.2
510054.22,9133463.87,13.2
510051.76,9133177.66,13.1
510041.7,9133229.41,13.1
510046.5,9133506.71,13.1
510043.75,9133455.79,13.1
510052.45,9133005.34,13.1
510049.71,9133460.61,13
510041.87,9133504.6,13
510038.44,9133451.42,13
510056.37,9133180.18,13
510046.19,9133231.87,13
510058.25,9133007.47,12.9
510059.67,9133467.66,12.9
510036.34,9133226.47,12.9
510046.99,9133003.03,12.9
510036.18,9133501.83,12.8
510039.54,9132999.35,12.8
510047.28,9133175,12.8
510042.79,9133172.51,12.7
510050.67,9133234.11,12.7
510060.94,9133182.59,12.5
510057.31,9132897.89,11.9
510053.13,9132894.98,11.8
510048.47,9132891.43,11.7
510044.41,9132888.32,11.5
510040.33,9132885.4,11.2
510036.21,9132882.53,11.1
510060.16,9132839.35,10.6
510055.64,9132836.66,10.4
510050.88,9132833.74,10.3
510046.54,9132830.95,10
510042.22,9132828.03,9.7
510037.59,9132824.85,9.6
510059.82,9132782.01,9
510055.41,9132779.64,8.7
510050.72,9132777.7,8.5
510045.79,9132776.26,8.4
510040.78,9132775.45,8.1
510057.39,9132725.95,6.5
510052.91,9132722.54,6.2
510047.15,9132718.96,5.5
510042.73,9132716.01,5.2
510038.22,9132713.77,4.8
510057.42,9132666.57,-0.2
510052.4,9132666.96,-0.9
510047.03,9132668.42,-1.2
510041.97,9132671.48,-1.3
510036.58,9132669.99,-1.8
510034.34,9133336.26,14.4
510022.9,9133274.3,14.4
510031.32,9133277.12,14.4
510018.15,9133272.39,14.3
510028.74,9133393.19,14.1
510017.13,9133386.76,14.1
510011.79,9133383.46,14
510035.58,9133396.36,14
510033.8,9133110.94,14
510029.1,9133334.25,13.9
510022.47,9133389.9,13.9
510034.81,9133055.81,13.8
510022.03,9133332.27,13.7
510029.57,9133108.16,13.7
510028.3,9133052.42,13.6
510023.12,9133104.65,13.6
510023.5,9133444.38,13.5
510016.99,9133331.1,13.5
510023.54,9133050.42,13.5
510018.75,9133048.37,13.3
510012.02,9133329.88,13.3
510031.08,9133447.48,13.3
510015.11,9133441.39,13.2
510024.92,9133162.3,13.2
510015.3,9133100.69,13.2
510014.13,9133046.21,13.2
510035.63,9133168.62,13.1
510029.3,9133164.84,13.1
510020.54,9133159.86,13.1
510016.18,9133157.36,13
510031.34,9133499.67,12.7
510026.27,9133219.83,12.7
510034.21,9132996.75,12.7
510022.2,9133495.08,12.6
510031.92,9133223.82,12.6
510017.29,9133213.79,12.6
510016.81,9133492.31,12.6
510029.03,9132993.92,12.5
510026.74,9133497.47,12.5
510012.05,9133490.04,12.4
510021.65,9133216.52,12.4
510022.8,9132990.67,12.3
510017.82,9132988.18,12.3
510013.16,9132985.81,12
510031.76,9132879.34,10.9
510027.33,9132876.33,10.7
510022.97,9132873.85,10.5
510018.24,9132871.75,10.1
510013.55,9132869.82,9.8
510033.15,9132821.66,9.3
510029.03,9132818.77,9.1
510024.49,9132815.98,8.9
510020.09,9132813.51,8.3
510015.79,9132810.76,7.8
510035.68,9132774.21,7.7
510011.54,9132808.1,7.4
510030.88,9132772.74,7.3
510026.05,9132771.1,6.6
510021.31,9132769.42,6.3
510016.52,9132767.72,5.7
510011.75,9132766.08,3.5
510033.32,9132712.31,3.2
509998.77,9133374.91,14.6
509990.34,9133368.47,14.6
510003.03,9133377.86,14.5
509994.37,9133371.49,14.5
510007.29,9133380.62,14.4
510010.94,9133269.18,14.2
510002.81,9133265.37,14
509992.09,9133259.94,13.9
509998.17,9133263.07,13.8
510003.43,9133326.4,13.5
509987.4,9133257.74,13.5
509999.12,9133323.75,13.4
509992.24,9133199.31,13.2
510010.3,9133439.73,13.1
510010.62,9133154.29,13
510009.8,9133098.04,13
509988.87,9133316.96,13
510000.57,9133435.87,13
509987.53,9133197.04,13
509993.97,9133320.44,13
510009.48,9133043.97,12.9
510005.24,9133437.78,12.9
509998.93,9133148.58,12.8
509993.15,9133432.68,12.8
510010.2,9133209.05,12.8
510006.04,9133151.98,12.8
509988.24,9133430.26,12.8
510001.47,9133484.57,12.8
509996.95,9133201.49,12.7
510005.22,9133095.97,12.7
510005.81,9133206.31,12.7
510004.9,9133041.88,12.7
509986.99,9133142.8,12.7
509991.62,9133145.05,12.7
509996.77,9133482.41,12.7
509990.15,9133479.79,12.7
509994.31,9133091.02,12.6
510001.47,9133203.82,12.6
509999.11,9133093.19,12.6
509999.08,9133039.21,12.5
510006.94,9133487.4,12.4
509989.1,9133088.9,12.3
509994.48,9133037.15,12.3
509987.08,9133033.78,12.1
510008.34,9132983.26,11.6
510002.31,9132980.24,11.5
509996.97,9132977.28,11.2
509987.41,9132971.2,11.1
509992.22,9132974.47,11.1
510008.9,9132867.94,9.6
510004.15,9132866.16,9.2
509999.5,9132864.25,8.9
509994.95,9132862.05,8.5
509990.2,9132859.89,7.7
510006.61,9132805.49,6.7
510001.86,9132803.85,5.9
509996.89,9132802.82,5.1
509991.66,9132801.6,4.1
509986.58,9132800.68,2.8
510006.76,9132765.29,1.6
509984.83,9133364.53,14
509980.54,9133361.87,13.9
509976.03,9133359.45,13.5
509965.67,9133354.55,13.3
509982.63,9133255.92,13.3
509971.44,9133357.15,13.2
509975.7,9133253.43,13.1
509984.67,9133314.04,13.1
509971.01,9133251.69,13.1
509982.32,9133427.67,12.9
509975.21,9133472.51,12.9
509974.94,9133307.84,12.8
509977.24,9133137.69,12.8
509982.32,9133140.49,12.8
509971.11,9133190.01,12.8
509983.85,9133476.64,12.8
509963.81,9133248.99,12.7
509979.38,9133193.36,12.7
509979.62,9133310.68,12.7
509963.4,9133466.38,12.7
509977.44,9133425.64,12.7
509970.45,9133470.17,12.6
509972.77,9133135.07,12.6
509966.09,9133188.07,12.5
509961.29,9133186.26,12.5
509964.12,9133418.52,12.5
509966.87,9133302.67,12.5
509972.36,9133423.16,12.4
509968.34,9133132.35,12.4
509962.15,9133300.25,12.4
509962.5,9133128.65,12.3
509980.24,9133085.03,11.8
509982.43,9133031.83,11.7
509973.94,9133081.81,11.6
509967.14,9132957.35,11.5
509972.56,9132960.56,11.5
509977.36,9132963.73,11.5
509977.53,9133029.75,11.4
509968.24,9133078.23,11.4
509982.96,9132967.91,11.3
509972.33,9133027.39,11.2
509962.58,9133074.32,11.1
509962.52,9132954.31,11.1
509967.66,9133024.85,10.8
509963.46,9133021.97,10.6
509985.58,9132857.8,7.3
509980.18,9132855.15,7.2
509975.56,9132853.02,6.2
509970.92,9132851.02,5.4
509966.18,9132849.33,4.3
509961.41,9132847.82,2.6
509981.71,9132799.29,1.3
509942.1,9133402.95,13.3
509946.49,9133406.23,13.2
509937.1,9133399.09,13.1
509953.98,9133349.67,13.1
509938.51,9133455.24,13
509961.05,9133352.56,13
509951.52,9133410.39,12.9
509937.78,9133342.26,12.8
509949.24,9133347.64,12.8
509944.14,9133345.35,12.7
509959.06,9133247.14,12.7
509953.2,9133295.55,12.7
509946.64,9133458.9,12.7
509950.15,9133242.43,12.6
509945.7,9133239.11,12.6
509958.76,9133464.22,12.6
509957.58,9133297.98,12.5
509951.36,9133460.95,12.5
509955.69,9133413.42,12.5
509941.73,9133235.97,12.3
509956.31,9133184.38,12.3
509947.79,9133292.49,12.2
509949.65,9133182.03,12.2
509936.65,9133285.53,12.1
509940.87,9133288.28,12.1
509958.15,9133125.82,12.1
509943.34,9133179.56,12
509938.8,9133176.96,11.9
509953.9,9133123,11.9
509948.51,9133119.3,11.6
509944.31,9133116.46,11.4
509938.8,9133112.68,11.3
509956.56,9133070.25,10.8
509951.01,9133066.55,10.4
509959.3,9133018.87,10.4
509946.84,9133063.76,10.2
509955.26,9133015.85,10.2
509942.02,9133060.46,10
509958.18,9132951.81,9.9
509951.17,9133012.8,9.7
509937.27,9133057.32,9.7
509947.09,9133009.82,9.2
509953.53,9132949.55,9.1
509942.86,9133006.95,9
509938.45,9133004.28,8.8
509948.95,9132947.51,8.4
509943.9,9132945.98,7.9
509938.9,9132944.84,7.5
509956.65,9132846.28,1.6
509917.53,9133386.25,13.5
509927.95,9133392.88,13.5
509912.49,9133382.95,13.4
509932.27,9133395.77,13.4
509921.9,9133388.91,13.4
509932.67,9133452.07,13.1
509933.16,9133339.89,13.1
509924.79,9133445.66,13
509920.23,9133442.13,12.9
509928.68,9133448.96,12.8
509915.79,9133439.18,12.7
509928.73,9133337.44,12.7
509913.74,9133329.35,12.6
509923.16,9133334.56,12.5
509918.59,9133332.07,12.4
509934.5,9133229.16,12.3
509929.69,9133224.16,12.2
509923.43,9133275.14,12.1
509928.67,9133279.31,12.1
509932.67,9133282.5,12
509925.92,9133220.78,11.9
509921.98,9133217.68,11.9
509913.5,9133269.48,11.8
509917.33,9133214.49,11.8
509918.49,9133271.96,11.8
509934.51,9133174.21,11.7
509912.84,9133212.02,11.6
509930.11,9133171.56,11.5
509924,9133167.72,11.4
509918.42,9133163.86,11.4
509934.53,9133109.47,11.3
509913.53,9133160.74,11.1
509930.31,9133106.6,11
509922.43,9133102.2,10.7
509917.73,9133100.06,10.6
509912.7,9133098.26,10.4
509933.01,9133054.58,9.2
509928.39,9133051.56,8.9
509923.67,9133048.42,8.8
509911.81,9133040.54,8.6
509916.67,9133043.55,8.6
509934.14,9133001.71,8.6
509929.65,9132999.32,8.4
509925.14,9132997.08,8.2
509919.55,9132994.52,8.2
509914.85,9132992.65,8
509934.1,9132943.11,6.9
509929.58,9132940.78,6.7
509925.16,9132938.37,6.1
509920.03,9132936.34,5.4
509915.37,9132934.16,4.3
509905.38,9133378.01,13.3
509900.06,9133374.21,13.2
509904.75,9133324.54,12.9
509893.42,9133319.79,12.9
509899.05,9133321.97,12.8
509895.44,9133371.13,12.8
509887.93,9133317.81,12.7
509908.34,9133435.24,12.7
509889.47,9133367.46,12.7
509890.02,9133427.81,12.4
509896.65,9133430.91,12.2
509903.55,9133433.44,12.2
509900.77,9133264.96,11.6
509907.04,9133266.94,11.5
509908.22,9133210.03,11.5
509893.75,9133262.71,11.5
509888.67,9133261.41,11.3
509902.11,9133207.53,11.2
509908.94,9133157.66,11.1
509897.39,9133205.57,11.1
509889.65,9133202.14,10.9
509904.65,9133154.85,10.9
509899.72,9133151.84,10.7
509894.96,9133149.17,10.5
509890.48,9133146.73,10.4
509907.94,9133096.6,10.3
509903.18,9133094.61,10.1
509898.62,9133092.52,10.1
509894.1,9133090.34,9.9
509889.47,9133088.34,9.5
509906.35,9133037.44,8.5
509900.91,9133034.86,8.1
509896.09,9133033.08,7.8
509910.09,9132990.89,7.7
509891.18,9133031.63,7.5
509905.23,9132989.3,7.4
509900.56,9132987.5,7.1
509896.28,9132984.9,5.6
509892.17,9132981.94,3.6
509887.96,9132978.76,2.5
509881.26,9133315.24,12.6
509882.89,9133363.63,12.5
509876.59,9133419.6,12.4
509878.33,9133361.47,12.4
509868.49,9133414.64,12.4
509876.44,9133313.76,12.4
509881.19,9133422.67,12.3
509870.58,9133311.1,12.3
509885.61,9133425.32,12.3
509867.41,9133355.48,12.2
509866.19,9133308.66,12.2
509872.69,9133358.38,12.1
509862.68,9133353.27,12.1
509861.47,9133306.37,12.1
509882.3,9133260.09,11.2
509876.94,9133258.46,10.9
509885.12,9133200,10.8
509868.49,9133254.88,10.8
509878.21,9133196.6,10.7
509864.14,9133252.09,10.6
509873.66,9133194.28,10.6
509868.62,9133191.71,10.4
509863.18,9133189.04,10.3
509886.07,9133144.21,10.2
509881.25,9133141.55,9.9
509874.58,9133138.22,9.8
509869.51,9133135.91,9.5
509864.74,9133133.95,9.4
509884.76,9133086.47,9.1
509879.96,9133084.79,8.6
509875.06,9133083.63,8.3
509869.94,9133083.12,8
509864.77,9133083.11,7.5
509885.42,9133030.31,7.2
509879.66,9133029.25,7.1
509874.6,9133027.97,6.6
509869.24,9133026.45,5.3
509864.44,9133024.82,4.2
509883.74,9132974.43,0.2
509882.5,9132969.49,0
509883.36,9132964.52,-0.3
509846.92,9133407.62,12.5
509842.46,9133405.24,12.4
509851.88,9133409.62,12.4
509860.34,9133411.67,12.3
509837.95,9133401.68,12.3
509857.85,9133351.6,11.9
509856.99,9133303.91,11.8
509852.73,9133301.25,11.7
509852.98,9133350.21,11.6
509844.67,9133348.01,11.5
509839.49,9133346.75,11.4
509848.35,9133298.16,11.4
509844.38,9133295.08,11.1
509839.49,9133291.28,10.8
509859.12,9133248.08,10.4
509853.64,9133242.74,10.2
509856.85,9133186.02,10
509851.85,9133183.69,9.8
509847.69,9133236.62,9.8
509843.59,9133233.08,9.7
509847.25,9133181.63,9.7
509837.08,9133228.03,9.5
509841.79,9133179.14,9.4
509859.16,9133131.88,9.1
509837.22,9133177.1,9
509854.29,9133130.08,8.5
509849.48,9133128.18,7.9
509844.73,9133126.29,7.8
509839.94,9133124.36,7.4
509859.68,9133082.88,7
509854.83,9133081.49,6.9
509850.09,9133079.76,6.3
509845.79,9133077.12,5.7
509841.93,9133073.89,4.7
509837.92,9133070.81,3.7
509859.82,9133022.8,2.9
509855.42,9133020.21,1.6
509833.99,9133398.32,12
509829.82,9133395.32,11.9
509825.44,9133392.62,11.6
509820.97,9133390.24,11.5
509834.56,9133345.61,11.4
509816.38,9133388.21,11.3
509811.72,9133386.33,11.2
509829.52,9133344.15,11.1
509824.2,9133342.42,11
509819.4,9133340.63,10.8
509811.71,9133337.43,10.8
509835.28,9133288.1,10.5
509831.21,9133285.03,10.3
509826.97,9133281.99,10.1
509822.67,9133279.3,9.9
509817.97,9133277.41,9.7
509813.21,9133275.6,9.5
509832.69,9133224.8,9.5
509828.39,9133221.61,9.2
509820.86,9133216.36,8.9
509816.64,9133213.57,8.7
509832.35,9133175.6,8.6
509812.36,9133210.68,8.5
509827.35,9133175.24,8.1
509822.4,9133174.44,7.8
509817.44,9133173.03,7.5
509835.05,9133122.48,7
509812.72,9133171.27,7
509829.96,9133120.83,6.8
509825.23,9133119.16,5.6
509820.76,9133116.65,4.8
509816.4,9133114.18,4.2
509834.26,9133067.36,2.3
509831.55,9133063.13,0.9
509830.64,9133058.14,-0.5
509831.38,9133053.19,-0.9
509806.86,9133384.69,11
509802.07,9133383.02,10.9
509795.7,9133380.77,10.8
509791.04,9133378.94,10.6
509806.72,9133334.83,10.6
509800.33,9133331.08,10.6
509786.32,9133377.05,10.6
509795.17,9133327.3,10.5
509791.09,9133324.06,10.2
509786.8,9133320.85,10.1
509808.5,9133273.71,9.3
509803.82,9133271.71,9.2
509799.17,9133269.7,8.9
509794.54,9133267.71,8.7
509789.86,9133265.6,8.5
509808.11,9133207.74,8.1
509803.96,9133204.86,7.7
509799.53,9133201.96,7.1
509794.84,9133199.73,6.9
509808.07,9133169.01,6.5
509790.26,9133197.52,6.5
509803.75,9133166.37,6.1
509799.39,9133163.82,5
509795.2,9133161.04,4.5
509810.77,9133110.44,3.7
509791.1,9133157.97,3.5
509786.65,9133155.61,2.4
509781.45,9133374.94,10.3
509774.01,9133371.49,10.1
509782.71,9133317.74,9.9
509769.4,9133369.31,9.9
509764.95,9133367,9.8
509778.23,9133314.44,9.5
509773.9,9133311.47,9
509769.52,9133308.59,8.4
509785.29,9133263.23,8.2
509763.72,9133304.92,8
509780.88,9133260.81,7.9
509776.45,9133258.39,7.6
509771.83,9133256.28,6.8
509785.63,9133195.06,6
509766.98,9133254.72,5.7
509781.2,9133192.74,5.3
509776.55,9133190.29,4.8
509772.1,9133187.99,3.9
509767.43,9133185.73,2.6
509762.37,9133182.56,1.4
509782.74,9133152.34,1.3
509780.87,9133147.68,0
509781.12,9133142.62,-1.1
509760.38,9133364.71,9.6
509755.34,9133362.97,9.1
509748.07,9133361.13,9
509743.34,9133359.44,8.7
509738.86,9133357.05,8
509758,9133301.19,7.7
509753.65,9133298.49,7.5
509748.3,9133295.66,7.1
509743.2,9133292.86,6.5
509738.6,9133290.21,5.6
509760.62,9133252.57,5.4
509755.94,9133250.27,5
509751.62,9133247.61,4.4
509747.66,9133244.5,3.8
509743.82,9133241.15,3.1
509739.83,9133237.91,2.1
509734.21,9133353.39,7.6
509730.75,9133349.7,7.1
509727.4,9133345.59,6.7
509723.98,9133341.91,6.2
509720.39,9133338.27,5.7
509716.67,9133334.91,5.2
509734.2,9133287.53,4.8
509712.63,9133331.95,4.5
509729.83,9133285.01,4
509725.05,9133282.45,3.2
509719.89,9133280.34,2.2
509735.52,9133235.3,0.6
509731.47,9133232.24,-0.5
509730.26,9133227.25,-1
509708.15,9133329.65,4
509703.34,9133327.99,3.5
509698.4,9133326.39,3
509693.51,9133325.18,1.7
509688.55,9133324.29,0.4
509683.59,9133323.41,-1.1
509678.61,9133322.93,-2.5
509668.09,9133323.78,-3.2
509673.76,9133324.54,-3.4
513138,9128226.13,6.5
513145.55,9128228.62,6.3
513149.87,9128231.22,4.6
513107.23,9128209.98,10.1
513115.7,9128215.25,9.9
513120.02,9128217.87,8.9
513125.43,9128221.03,7.3
513130.04,9128223.14,6.7
513089.78,9128196.03,11.2
