509452.46,9110246.89,-4.2
509458.75,9110315.84,-4.3
509437.1,9110266.09,-4.4
509449.43,9110329.1,-4.5
509460.22,9110236.79,-4.5
509448.33,9110252.24,-4.8
509452.95,9110324.12,-4.9
509434.96,9111112.06,17.1
509415.28,9111053.6,16.8
509412.18,9111057.86,16.7
509418.71,9111049.14,16.5
509422.31,9111044.88,16.3
509426.57,9111040.56,16.1
509415.08,9111020.19,16.1
509423.83,9111022.29,16
509431.01,9111035.81,16
509434.45,9111031.39,15.8
509432.02,9111116.15,15.6
509433.14,9111025.79,15.6
509429.38,9111120.64,15.4
509423.86,9111130.36,15.2
509426.47,9111125.88,15.1
509414.34,9110987.61,15
509434.7,9111166.51,14.9
509420.79,9110981.36,14.8
509425.04,9110976.55,14.7
509430.15,9111170.56,14.7
509413.47,9111149.39,14.7
509421.43,9111134.76,14.7
509418.45,9111140.32,14.5
509410.89,9111153.92,14.4
509415.91,9111144.98,14.4
509427.9,9110972.43,14.3
509426.94,9111174.41,13.9
509430.42,9110968.08,13.6
509433,9110963.78,13.6
509414.27,9111193.13,13.4
509419.96,9111184.82,13.3
509417.12,9111188.99,13.2
509424.03,9111178.59,13.1
509412.56,9110877.73,11.3
509415.53,9110873.7,11.1
509418.49,9110869.62,10.5
509428.91,9110858.53,10.3
509421.52,9110865.5,10.2
509424.9,9110861.72,10
509411.86,9110791.54,8.7
509414.74,9110787.17,8.5
509417.56,9110782.95,8.1
509420.44,9110778.78,7.9
509424.41,9110773.39,7.6
509427.58,9110769.25,7.4
509431.55,9110764.16,7
509434.68,9110760.15,6.9
509429.21,9110748.69,6.8
509416.31,9110744.08,6.8
509421.09,9110745.72,6.7
509411.99,9110713.82,5.7
509414.52,9110709.16,5.5
509417.28,9110704.04,5.3
509421.93,9110694.67,4.9
509431.02,9111285,4.9
509419.6,9110699.5,4.9
509424.13,9110690.1,4.8
509427.29,9110684.35,4.5
509429.95,9110680.06,4.3
509433.13,9110675.68,4.1
509425.58,9111285.97,3.9
509419.61,9111285.16,2.9
509411.28,9110627.65,2.7
509414.55,9110621.59,2.6
509417.02,9110617.24,2.4
509419.8,9110612.9,2.2
509422.74,9110608.71,1.9
509425.79,9110604.51,1.7
509429.49,9110599.94,1.7
509432.88,9110596.14,1.3
509413.65,9110540.57,0.2
509426.72,9110525.64,-0.4
509431.52,9110520.77,-0.6
509422.25,9110530.4,-1.8
509411.56,9110461.17,-1.9
509417.4,9110535.97,-1.9
509417.9,9110452.8,-2
509414.88,9110456.82,-2
509423.56,9110445.3,-2.7
509417.81,9110388.94,-3.2
509419.69,9110373.8,-3.2
509422.58,9110390.78,-3.3
509426.91,9110440.72,-3.4
509412.93,9110387.06,-3.4
509425.95,9110362.29,-3.4
509431.33,9110394.07,-3.5
509414.7,9110382.34,-3.5
509420.81,9110287.85,-3.6
509433.89,9110270.12,-3.6
509422.01,9110369.31,-3.6
509430.99,9110435.07,-3.6
509433.78,9110350.42,-3.9
509423.72,9110283.68,-3.9
509417.03,9110216.89,-3.9
509429.67,9110356.42,-4
509421.33,9110213.79,-4
509411.92,9110220.41,-4.2
509425.05,9110209.78,-4.2
509426.38,9110202.58,-4.2
509427.84,9110277.93,-4.5
509417.52,9110292.06,-4.6
509413.95,9110296.03,-5.5
509395.98,9111079.23,17
509402.23,9111071.75,16.9
509406.11,9111066.14,16.9
509392.66,9111082.98,16.6
509396.99,9111014.94,16.3
509402.08,9111016.95,16.3
509386.29,9111018.16,16.2
509408.7,9111018.57,16.2
509385.83,9111090.6,15.9
509395.26,9111003.6,15.8
509400.92,9110998.27,15.6
509405.72,9111205.9,15.6
509389.25,9111086.76,15.6
509405.64,9110994.6,15.2
509392.23,9111012.81,15.1
509410.34,9110990.99,15
509409.47,9111200.13,14.3
509387.4,9111191.85,14
509391.44,9111186.44,13.9
509408.15,9111158.41,13.9
509394.33,9111181.96,13.7
509392.18,9111007.66,13.7
509397.02,9111177.47,13.5
509402.81,9111210.22,13.5
509389.34,9110905.95,13
509385.69,9110909.83,12.8
509405.51,9111162.71,12.7
509399.86,9111214.27,12.6
509400.41,9111171.4,12.5
509391.63,9111224.09,12.3
509394.08,9110900.8,12.2
509403.02,9110890.11,12.1
509402.95,9111167.03,12.1
509406.24,9110886.02,12
509399.38,9110894.67,11.8
509409.36,9110881.96,11.8
509395.08,9111220.21,11.6
509386.68,9111229.49,11.5
509388.33,9110826.25,10
509394.1,9110817.68,9.8
509391.26,9110821.99,9.7
509396.99,9110813.33,9.3
509405.04,9110801.57,9.1
509399.83,9110809.1,9
509407.91,9110797.36,8.5
509386.67,9110748.57,7.5
509390.04,9110744.73,7.2
509393.16,9110740.72,7
509404.11,9110740.18,6.9
509390.06,9110735.81,6.8
509408.88,9110741.69,6.7
509399.42,9110732.36,6.6
509397.5,9110738.14,6.6
509402.5,9110728.29,6.4
509406.44,9110722.97,6.2
509409.14,9110718.76,6
509388.03,9110662.36,4.5
509391.5,9110658.41,4.3
509394.7,9110654.41,4.1
509397.57,9110650.26,3.7
509401.02,9110644.9,3.5
509403.75,9110640.57,3.3
509407.72,9110633.95,3
509387,9110580.09,1.9
509390.3,9110576.16,1.7
509393.44,9110572.18,1.6
509396.34,9110567.98,1.4
509399.14,9110563.72,1.2
509401.97,9110559.18,0.9
509405.24,9110553.62,0.7
509408.19,9110548.53,0.6
509392.83,9110484.09,-1.1
509387.79,9110490.95,-1.4
509401.04,9110474.22,-1.5
509404.93,9110469.44,-1.6
509396.33,9110479.86,-1.8
509408.18,9110465.41,-1.9
509386.65,9110421.05,-2.3
509391.96,9110414.65,-2.4
509395.03,9110410.47,-2.6
509400.7,9110401.82,-2.8
509397.84,9110406.19,-2.8
509406.02,9110394.69,-2.9
509401.53,9110382.49,-3
509396.84,9110380.48,-3.1
509409.11,9110390.59,-3.2
509389.75,9110377.5,-3.2
509406.18,9110384.4,-3.6
509407.45,9110223.67,-3.8
509391.8,9110242.25,-3.9
509388.36,9110325.81,-4
509386.13,9110252.45,-4
509399.23,9110311.86,-4.1
509405.69,9110304.58,-4.1
509402.88,9110227.48,-4.3
509392.16,9110320.92,-4.4
509396.98,9110234.03,-4.4
509409.42,9110300.84,-4.5
509389.24,9110246.8,-4.6
509395.61,9110316.44,-4.7
509368.13,9111041.94,16.7
509377.18,9111099.37,16.7
509378.32,9111030.98,16.4
509381.59,9111026.27,16.3
509372.37,9111037.73,16.2
509382.34,9111094.22,16.2
509373.68,9111103.18,16
509378.88,9111006.32,16
509372.64,9111003.67,16
509385.28,9111009.32,15.8
509364.38,9111045.48,15.8
509361.49,9111118.57,15.7
509367.81,9111002.19,15.6
509367.83,9111110.6,15.6
509360.68,9111049.01,15.6
509364.76,9111114.59,15.3
509363.85,9110935.7,13.6
509369.61,9110927.26,13.2
509376.13,9110919.68,12.8
509381.03,9110914.78,12.7
509366.69,9110931.5,12.7
509375.8,9111207.14,12.5
509369.12,9111218.91,12.4
509384.28,9111195.85,12.1
509366.88,9111223.56,11.8
509363.9,9111230.62,11.6
509381.57,9111235.48,11.5
509371.45,9111214.47,11.5
509381.04,9111200.01,11.4
509372.69,9110847.66,10.9
509361.56,9110860.83,10.9
509378.51,9111239.66,10.9
509369.11,9110852,10.7
509365.11,9110856.7,10.7
509375.84,9110843.67,10.6
509361.91,9111235.23,10.4
509378.86,9110839.63,10.4
509376,9111244,10.3
509385.01,9110831.02,10
509381.83,9110835.55,9.8
509374.2,9111248.7,9.4
509366.45,9110771.68,8.5
509369.79,9110767.94,8.4
509373.52,9111253.81,8.3
509373.08,9110764.15,8.2
509376.33,9110760.35,7.8
509381.61,9110754.23,7.7
509362.53,9110726.24,7.1
509374.41,9111258.74,7
509375.37,9110730.82,6.9
509383.17,9110733.53,6.9
509368.87,9110728.52,6.9
509361.18,9110696.07,6.2
509364.22,9110691.97,6
509368.64,9110686.2,5.9
509372.31,9110681.46,5.7
509375.47,9110677.49,5.4
509378.77,9110673.4,5
509382.99,9110668.23,4.7
509363.61,9110610.58,3.1
509366.83,9110606.56,3
509372.99,9110597.55,2.8
509369.93,9110602.23,2.8
509375.9,9110593.46,2.7
509379.37,9110589.14,2.4
509383.43,9110584.4,2.1
509363.22,9110526.08,0.4
509366.07,9110521.97,0.2
509369.73,9110516.66,0
509373.18,9110511.66,-0.1
509376.14,9110507.59,-0.1
509379.81,9110502.48,-0.6
509384.9,9110495.16,-0.9
509362.24,9110452.63,-1.3
509365.09,9110448.42,-1.5
509369.91,9110441.15,-1.7
509376.78,9110431.67,-2.1
509373.46,9110435.95,-2.1
509381.99,9110426.35,-2.1
509385.09,9110375.45,-3.1
509363.63,9110368.27,-3.2
509378.21,9110372.55,-3.3
509366.28,9110355.07,-3.3
509361.88,9110360.76,-3.4
509375.46,9110342.71,-3.6
509372.3,9110370.48,-3.6
509369.28,9110351.01,-3.6
509379.59,9110337.43,-3.9
509362.39,9110289.98,-4.1
509385.2,9110329.9,-4.2
509371.22,9110182.66,-4.4
509367.56,9110186.57,-4.4
509363.85,9110190.45,-4.5
509380.21,9110262.59,-4.5
509376.11,9110177.7,-4.5
509366.89,9110283.48,-4.5
509381.64,9110174.35,-4.6
509383.24,9110257.48,-4.9
509372.28,9110346.9,-4.9
509374.41,9110271.78,-4.9
509371.66,9110276.08,-5.4
509377.16,9110267.56,-6.4
509353.32,9111128.98,16.9
509342.12,9111072.89,16.8
509358.28,9111122.42,16.6
509345.92,9111067.5,16.6
509349.07,9110996.31,16.5
509353.95,9110998.04,16.4
509343.88,9110994.57,16.4
509350.29,9111133.18,16.4
509358.71,9110999.7,16.3
509337.95,9110991.55,16.3
509335.96,9111080.76,16.2
509347.11,9111137.44,15.7
509337.5,9110971.4,15.5
509349.2,9111063.05,15.4
509341.83,9111144.13,15.4
509352.28,9111058.99,15.3
509338.67,9111148.09,15.3
509340.33,9110967.13,15.1
509343.16,9110962.9,14.9
509350.06,9110953.42,14.6
509353.32,9110949.44,14.3
509356.45,9110945.53,14.2
509355.48,9111054.94,14.2
509346.22,9110958.48,14.2
509359.64,9110941.46,13.5
509339.51,9110897.27,13.4
509342.12,9110892.9,12.9
509344.57,9110888.29,12.4
509348.56,9110880.56,12.1
509352.28,9110873.94,11.6
509354.99,9110869.72,11.2
509357.91,9110865.56,10.7
509338.55,9110801.49,10.1
509341.97,9110797.71,9.8
509345.4,9110793.96,9.4
509352.36,9110786.62,9.2
509348.8,9110790.24,9.1
509359.89,9111240.13,8.8
509360.03,9110778.71,8.8
509356,9110783.03,8.8
509358.17,9111244.85,8.2
509338.27,9110732.61,7.7
509344.95,9110722.17,7.6
509341.05,9110728.44,7.5
509357.68,9110724.48,7.3
509349.94,9110721.68,7.2
509349.92,9110713.44,7.1
509340.33,9110718.1,7.1
509354.35,9110706.34,7
509355.67,9111249.26,7
509335.56,9110716.37,6.7
509357.12,9110701.98,6.6
509351.96,9111252.86,6.3
509347.51,9111255.2,5.3
509336.48,9110647.96,4.6
509341.41,9110639.47,4.4
509344.24,9110635.2,4.3
509348.39,9110630.28,4
509351.55,9110626.28,3.9
509354.5,9110622.14,3.7
509358.92,9110616.4,3.5
509341.48,9111256.07,3.4
509336.41,9111255.27,1.9
509337.54,9110557.19,1.8
509341.1,9110553.33,1.7
509344.45,9110549.61,1.5
509351.22,9110541.9,1.1
509347.87,9110545.74,1.1
509354.93,9110537.3,0.8
509358.92,9110532.05,0.8
509335.73,9110484.06,-0.5
509338.74,9110479.96,-0.5
509341.66,9110475.86,-0.8
509344.98,9110471.52,-0.8
509348.21,9110467.6,-1.1
509353.21,9110462.28,-1.3
509357.55,9110457.85,-1.4
509337.82,9110399.83,-2.4
509340.45,9110395.48,-2.5
509343.33,9110390.49,-2.6
509346.58,9110385.1,-2.7
509354.09,9110366.37,-2.9
509349.15,9110365.47,-3
509340.71,9110363.94,-3.2
509349.18,9110380.67,-3.2
509353.44,9110373.24,-3.3
509336.75,9110323.16,-3.5
509358.87,9110364.87,-3.6
509347,9110309.66,-3.7
509352.26,9110302.86,-3.7
509343.88,9110313.76,-3.7
509339.85,9110319.08,-3.8
509359.27,9110294.09,-3.8
509355.94,9110298.21,-3.8
509351.66,9110204.63,-4.6
509339.63,9110221.04,-4.8
509335.96,9110226.08,-4.9
509360.18,9110194.27,-5
509344.07,9110215.3,-5.2
509356.39,9110198.59,-5.3
509348.65,9110208.93,-5.5
509312.58,9111007.42,16.5
509314.08,9111107.53,16.4
509321.17,9111098.2,16.3
509317.39,9111103.01,16.2
509324.43,9111094.2,16.2
509332.32,9110987.25,16.2
509321.75,9110993.64,16.2
509324.59,9110989.4,16
509318.41,9110998.67,16
509329.27,9111088.46,15.9
509315.54,9111003.09,15.9
509334.64,9110975.65,15.8
509331.33,9110980.3,15.8
509319.35,9110982.02,15.7
509332.63,9111084.54,15.7
509327.51,9110985.34,15.7
509313.83,9110981.45,15.5
509335.39,9111151.98,15.1
509331.86,9111156.13,15
509327.71,9111161.15,14.8
509324.57,9111165.28,14.1
509322.09,9111169.72,13.9
509319.22,9111176.48,13.6
509319.78,9110919.97,13.3
509335.02,9110903.29,13.3
509317.03,9111180.98,13.3
509313.49,9110927.57,13.2
509326.26,9110912.82,13.1
509331.54,9110907.19,13.1
509314.24,9111185.22,12.7
509311.09,9111189.19,12.2
509313.92,9110837.59,11.9
509311.11,9110842.71,11.4
509317.3,9110831.2,11.4
509330.59,9110810.87,10.8
509320.95,9110824.89,10.8
509327.52,9110814.98,10.8
509324.62,9110819.17,10.4
509333.76,9110806.94,10.4
509318.18,9110757.81,9.2
509321.25,9110753.77,8.8
509315.24,9110761.87,8.8
509310.96,9110768.05,8.7
509327.84,9110745.82,8.5
509324.38,9110749.84,8.5
509331.12,9110742.01,8.4
509334.33,9110737.99,8
509326.77,9110713.43,7
509321.96,9110711.92,6.7
509315.37,9110709.83,6.6
509310.6,9110700.45,6.4
509312.14,9110684.52,6.2
509314.77,9110679.46,5.9
509322.89,9110668.14,5.8
509317.24,9110675.05,5.7
509326.07,9110664.19,5.4
509331.16,9110656.67,5.2
509333.9,9110652.33,4.9
509311.64,9110591.41,3
509314.74,9110587.02,3
509317.73,9110582.73,2.7
509320.95,9110578.17,2.5
509323.89,9110574.04,2.3
509330.53,9110565.01,2.3
509327.44,9110568.99,2.2
509333.87,9110561.17,1.9
509312.7,9110515.17,0.9
509316.54,9110510.35,0.7
509319.47,9110506.29,0.6
509322.32,9110502.18,0.4
509326.04,9110497.17,0.1
509329.04,9110493.09,-0.1
509331.99,9110489,-0.2
509316.86,9110427.59,-1.5
509320.43,9110423.54,-1.7
509324.79,9110418.57,-1.8
509330.35,9110411.58,-2.3
509334.36,9110405.64,-2.4
509310.98,9110355.72,-2.8
509317.08,9110359.03,-2.8
509314.53,9110352,-2.9
509328.17,9110361.57,-2.9
509322.05,9110360.23,-3
509333.13,9110362.52,-3.1
509318.19,9110347.93,-3.1
509333.76,9110327.2,-3.1
509313.56,9110431.53,-3.1
509330.72,9110331.41,-3.3
509327.9,9110335.6,-3.5
509322.89,9110342.52,-3.9
509319.98,9110250.8,-4.5
509311.94,9110259.84,-4.6
509319.8,9110171.9,-4.8
509315.3,9110177.82,-4.8
509333.62,9110159.71,-5
509327.55,9110239,-5
509332.58,9110230.82,-5
509323.21,9110168.09,-5.2
509324.33,9110244.57,-5.2
509311.09,9110183.85,-5.6
509328.44,9110163.52,-6.1
509316.87,9110254.73,-6.1
509288.54,9111032.4,18.4
509292.15,9111028.64,18.2
509295.78,9111025.05,17.9
509299.72,9111021.4,17.5
509303.48,9111018,16.9
509307.03,9111014.39,16.4
509310.08,9111113.85,16.2
509305.27,9111122.21,16
509302.93,9110977.25,15.8
509298.6,9110974.08,15.6
509302.44,9111126.7,15.6
509291.32,9111142.16,15.6
509293.81,9110971.37,15.5
509308.37,9110980.15,15.4
509297,9111134.73,15.4
509287.34,9111146.98,15.4
509289.14,9110969.46,15.2
509292.8,9110952.31,15.1
509289.45,9110956.64,15
509297.08,9110947.18,15
509300.46,9110943.36,14.9
509303.93,9110939.56,14.6
509307.2,9110935.61,13.9
509310.29,9110931.64,12.7
509287.6,9110877.09,12.7
509294.37,9110868.95,12.4
509297.41,9110864.89,12
509291.07,9110873.12,12
509300.98,9110859.6,11.9
509303.68,9110855.37,11.6
509307.61,9110848.82,11.5
509307.53,9111192.86,11.1
509303.8,9111196.31,10.9
509287.36,9110793.17,10.7
509297.87,9110784.47,10.7
509291.57,9110789.96,10.5
509301.32,9110780.83,10.1
509299.25,9111201.47,9.9
509304.64,9110776.91,9.6
509308.13,9110772.24,9.4
509296.53,9111205.81,9.3
509294.09,9111210.39,8.5
509287.26,9110727.48,8.1
509291.62,9111215.9,8.1
509290.89,9110723.21,7.8
509294.25,9110719.43,7.5
509292.91,9110702.52,7.2
509302.52,9110705.65,7.1
509301.65,9110714.08,7
509287.98,9110701.06,6.9
509307.38,9110707.26,6.8
509297.72,9110704.04,6.8
509290.74,9111220.88,6.5
509310.15,9110690.09,6.3
509310.03,9110695.14,6
509286.76,9110627.42,4.7
509289.72,9110623.25,4.5
509292.59,9110619.11,4.1
509297.71,9110611.67,4
509300.63,9110607.44,3.8
509303.48,9110603.31,3.7
509308.45,9110596.03,3.4
509288.38,9110550.19,2.2
509292.7,9110543.91,2
509295.6,9110539.77,1.9
509298.46,9110535.46,1.6
509302.66,9110529.26,1.4
509307.13,9110522.85,1.2
509288.91,9110459.36,-0.3
509293.78,9110453.54,-0.6
509297.79,9110448.84,-0.6
509305.66,9110440.26,-1.3
509291.78,9110374.5,-2
509301.81,9110444.37,-2.1
509295.37,9110370.74,-2.2
509299.16,9110367.2,-2.5
509288.59,9110378.39,-2.5
509306.46,9110360.29,-2.6
509302.87,9110363.81,-2.7
509297.48,9110353.86,-2.8
509289.13,9110351.18,-2.8
509302.44,9110355.3,-2.9
509295.12,9110280.42,-3.9
509298.19,9110276.39,-3.9
509288.74,9110288.54,-4.2
509291.93,9110284.44,-4.3
509306.44,9110265.49,-4.3
509302.91,9110269.8,-4.3
509303.25,9110192.44,-5.1
509287.83,9110211.63,-5.7
509297.36,9110199.82,-5.8
509294.65,9110204.44,-6
509307.31,9110188.36,-6.1
509283.13,9111037.69,18.2
509262.21,9110993.63,17.1
509279.36,9111041.28,17
509265.94,9110989.24,16.7
509275.16,9111045.75,16.6
509268.43,9111053.98,16.6
509261.55,9111063.75,16.5
509269.16,9110985.41,16.5
509264.71,9111059.3,16.3
509272.46,9110981.38,16.3
509271.65,9111049.86,16.1
509275.63,9110977.32,16
509278.54,9110973.15,15.8
509284.43,9110963.88,15.1
509264.52,9110962.26,14.9
509284.09,9111150.78,14.7
509269.33,9110964.2,14.7
509273.88,9110966.36,14
509262.58,9110907.74,13.8
509280.79,9111154.72,13.7
509268.1,9110899.77,13.6
509271.25,9110895.22,13.5
509279.61,9110885.33,12.8
509274.51,9110891.22,12.7
509277.25,9111159.2,12.6
509264.68,9110821.44,12.3
509269.91,9110811.7,11.9
509278.96,9110967.67,11.8
509261.8,9110825.63,11.7
509274.46,9111163.38,11.7
509267.5,9110816.49,11.6
509272.27,9110807.22,11.1
509268.73,9111174.48,10.9
509279.38,9110799.3,10.8
509283.29,9110796.18,10.7
509271.93,9111167.77,10.7
509275.73,9110802.74,10.3
509261.33,9111190.58,10
509266.5,9111179.32,9.9
509263.9,9111185.09,9.9
509261.47,9110749.81,9.7
509265.66,9110746.52,9.6
509269.73,9110743.26,9.2
509279.81,9110734.64,9
509273.64,9110740,8.9
509283.58,9110731.24,8.7
509265.6,9110695.12,7.5
509283.08,9110699.69,7.5
509271.27,9110696.55,7.4
509276.25,9110697.85,7.1
509266.02,9110655.74,6.1
509263.04,9110659.79,6
509270,9110650.34,5.6
509273.12,9110646.11,5.5
509280.7,9110635.9,5.2
509276.15,9110642.04,5.2
509283.62,9110631.77,4.9
509262.39,9110583.92,3.7
509266.47,9110579.18,3.4
509269.75,9110575.36,3.2
509274.96,9110568.8,3
509277.96,9110564.77,2.7
509283.69,9110557.08,2.4
509262.88,9110494.49,1.2
509265.89,9110490.46,0.8
509268.85,9110486.32,0.6
509273.19,9110479.67,0.3
509276.21,9110475.5,0.3
509279.47,9110471.18,0
509284.52,9110464.6,-0.2
509264.3,9110418.48,-0.9
509266.97,9110413.47,-1.2
509269.84,9110408.45,-1.3
509279.02,9110393.14,-1.6
509273.49,9110402.04,-1.6
509285.29,9110383.22,-1.7
509282.36,9110387.93,-1.7
509276.13,9110397.65,-1.7
509283.11,9110349.29,-2.5
509267.59,9110344.65,-2.8
509275.01,9110346.73,-2.8
509266.1,9110323.7,-3.1
509262.13,9110329.82,-3.1
509273.88,9110311.1,-3.2
509268.88,9110319.22,-3.3
509276.5,9110306.81,-3.5
509279.24,9110302.42,-3.6
509283.41,9110295.95,-3.7
509283.54,9110215.66,-4.5
509271.38,9110230.31,-4.8
509266.44,9110237.21,-4.8
509280.04,9110219.26,-4.8
509262.38,9110243,-5.3
509261.96,9110161.17,-5.3
509276.43,9110223.48,-6.5
509237.85,9111021.89,19.3
509244.23,9111014.77,19.2
509248.92,9111009.33,19
509252.25,9111005.39,18.5
509255.51,9111001.54,18.2
509258.81,9110997.66,17.7
509251.14,9111077.22,17
509248.06,9111081.23,16.4
509256.77,9111069.95,16.3
509235.43,9110942.51,15.8
509244.82,9111085.61,15.7
509239.41,9111094.03,15.6
509254.99,9110958.42,15.5
509242.06,9111089.78,15.4
509238.71,9110951.68,15.3
509236.72,9111098.44,15.2
509259.85,9110960.4,15.1
509243.91,9110930.96,14.8
509247.84,9110955.32,14.7
509251.38,9110922.14,14.6
509254.62,9110917.76,14.4
509247.31,9110926.96,14.3
509259.48,9110911.79,14.3
509239.02,9110937.48,14
509239.87,9110852.33,12.9
509243.08,9110848.44,12.4
509235.9,9110857.39,12.1
509250.47,9110839.48,12
509255.01,9110834.07,12
509258.4,9110830.01,11.6
509246.34,9110844.47,11.4
509235.88,9110775.22,11.4
509239.89,9110770.97,11.3
509243.88,9110766.99,10.6
509253.35,9110757.65,10.1
509248.91,9110762.01,10
509256.89,9110754.02,9.7
509258.99,9111195.31,8.4
509239,9110688.67,7.9
509243.96,9110689.83,7.6
509256.55,9111199.7,7.6
509258.6,9110693.36,7.5
509251.61,9110691.66,7.5
509246.43,9110680.67,7.4
509243.16,9110684.75,7.3
509249.88,9110676.61,7
509253.44,9110672.39,6.8
509256.84,9110668.05,6.5
509253.54,9111203.87,6.5
509259.88,9110664.04,6.3
509239.44,9110614.39,5.3
509249.63,9111207.01,5.1
509242.66,9110609.9,5
509245.07,9110605.51,4.7
509248.83,9110599.55,4.6
509252.06,9110595.63,4.2
509255.54,9110591.91,3.9
509258.97,9110588.08,3.8
509244.83,9111208.48,3.5
509239.71,9111208.5,2.4
509238.21,9110525.37,2.2
509243.11,9110519.66,1.9
509250.87,9110510.45,1.7
509246.42,9110515.78,1.7
509254.01,9110506.43,1.4
509259.53,9110498.89,1.2
509236.79,9110456.82,0.4
509240.47,9110452.53,0.1
509247.48,9110444.24,-0.1
509243.9,9110448.6,-0.3
509250.72,9110440.02,-0.3
509254.21,9110435.32,-0.5
509257.7,9110430.52,-0.6
509260.35,9110426.14,-0.7
509239.48,9110361.15,-2.1
509250.04,9110347.21,-2.6
509259.4,9110342.4,-2.7
509246.76,9110339.06,-2.8
509256.44,9110338.18,-2.8
509237.23,9110336.41,-2.9
509253.1,9110342.95,-2.9
509259.32,9110333.96,-2.9
509242.82,9110356.79,-3.3
509237.73,9110281.69,-3.4
509259.44,9110247.18,-3.8
509240.6,9110277.17,-3.8
509243.23,9110272.88,-3.8
509249.74,9110262.09,-3.9
509246.32,9110352.15,-4
509246.15,9110268.06,-4
509256.62,9110251.39,-4.5
509252.13,9110171.74,-4.7
509255.31,9110167.76,-5.3
509242.53,9110183.05,-5.3
509248.28,9110176.4,-5.4
509252.77,9110257.22,-5.4
509238.39,9110187.6,-6
509234.38,9111025.88,18.6
509212.58,9110971.28,18.2
509231.21,9111029.85,18.2
509224.89,9111038.11,18
509228.14,9111033.8,17.8
509212.89,9111052.28,17.7
509215.84,9110967.32,17.7
509216.16,9111048.47,17.6
509219.27,9110963.65,17.4
509221.53,9111042.24,17.2
509222.63,9110959.71,17.1
509225.82,9110955.69,16.7
509228.86,9110951.71,16.4
509210.92,9110935.12,16.3
509219.89,9110940.91,16.3
509224.05,9110943.71,16.1
509215.24,9110937.69,15.9
509228.9,9110946.69,15.8
509234.05,9110949.48,15.5
509234.06,9111102.82,15.4
509230.72,9111108.6,15.3
509214.09,9110887.53,14.3
509228.3,9111113.09,14.2
509221.29,9110878.1,13.9
509217.09,9110883.38,13.8
509213.78,9111134.85,13.3
509224.3,9110873.96,13.2
509232.92,9110861.52,13.1
509227.17,9110869.74,12.9
509216.87,9111130.37,12.8
509225.71,9111117.57,12.6
509218.4,9110796.52,12.4
509222.75,9111122.03,12.4
509211.38,9110804.67,12.2
509219.85,9111126.16,12
509214.72,9110800.74,12
509221.76,9110792.49,11.9
509224.89,9110788.59,11.7
509229.13,9110783.23,11.6
509232.29,9110779.33,11
509215.47,9110724.86,9.8
509212.12,9110730.19,9.5
509218.09,9110720.43,9.3
509221.04,9110715.49,9
509223.77,9110711.09,8.7
509231.06,9110700.45,8.6
509234.09,9110696.38,8.4
509226.57,9110706.79,8.3
509216.02,9110682.85,8.1
509228.43,9110686.16,7.9
509221.1,9110684.3,7.9
509233.36,9110687.36,7.6
509215.38,9110647.08,7
509212.95,9110651.82,7
509217.16,9110642.32,6.6
509219.03,9110636.81,6.5
509221.55,9110632.14,6
509225.32,9110627.77,5.9
509233.38,9110620.88,5.8
509229.3,9110624.33,5.6
509210.61,9110561.22,4
509213.83,9110556.74,3.8
509217.47,9110551.88,3.7
509220.49,9110547.85,3.4
509225.61,9110540.51,3.1
509229.61,9110535.09,2.8
509233.28,9110530.85,2.6
509213.3,9110482.49,1.6
509216.77,9110478.67,1.3
509222,9110473.06,1.1
509225.55,9110469.23,0.9
509229.08,9110465.44,0.8
509232.52,9110461.75,0.6
509212.39,9110391.15,-1.2
509230.54,9110372.14,-1.7
509222.49,9110381.22,-1.9
509233.79,9110368.24,-2.2
509217.06,9110328.83,-2.4
509223.58,9110331.46,-2.5
509215.22,9110320.14,-2.5
509212.41,9110324.96,-2.5
509217.13,9110386.65,-2.5
509228.31,9110333.2,-2.6
509217.92,9110315.33,-2.8
509220.37,9110310.84,-2.9
509226.29,9110377.08,-3
509227.74,9110297.35,-3.1
509222.8,9110306.25,-3.1
509230.72,9110292.27,-3.2
509225.23,9110301.72,-3.2
509233.72,9110287.66,-3.5
509223.59,9110204.63,-4.5
509211.14,9110223.63,-4.6
509227.2,9110200.02,-4.6
509231.22,9110195.32,-5
509231.58,9110131.19,-5.1
509227.33,9110141.79,-5.1
509213.2,9110157.17,-5.2
509220.07,9110209.53,-5.3
509214.9,9110217.58,-5.3
509222.19,9110148,-5.3
509217.77,9110152.7,-5.4
509234.72,9110191.53,-5.6
509230.08,9110136.84,-5.9
509203.93,9110981.33,18.6
509207.28,9110976.94,18.5
509200.98,9110985.53,18.3
509187.96,9111004.79,17.3
509208.15,9111058.22,17.3
509203.93,9111065.36,17.1
509191.46,9110999.82,17.1
509195.36,9110994.08,16.8
509188.38,9110931.06,16.4
509203.18,9110932.96,16.2
509194.82,9110931.43,16.1
509191.22,9110924.95,16.1
509198.11,9110989.81,16
509197.26,9111076.58,16
509195.44,9110918.25,16
509194.4,9111080.82,15.8
509201.34,9111070.06,15.7
509198.3,9110913.72,15.6
509191.6,9111085.3,15.3
509188.89,9111089.52,14.9
509200.87,9110909.43,14.9
509209.12,9110895.37,14.7
509204.69,9110902.92,14.5
509194.46,9110827.71,13.7
509186.17,9111093.87,13.7
509190.18,9110833.79,13.6
509186.98,9110837.88,13.5
509197.35,9110823.42,13.2
509202.82,9110815.83,13.2
509209.72,9111140.78,12.9
509206.87,9111145.16,12.2
509205.96,9110811.62,12.2
509204.25,9111149.52,11.6
509189.48,9110759.34,11.3
509192.5,9110755.35,11.2
509195.64,9110751.28,10.9
509202.21,9111154.23,10.7
509198.81,9110747.18,10.7
509201.96,9110743.24,10.4
509205.33,9110739.21,10.2
509208.56,9110735.22,9.9
509200.27,9111158.97,9.1
509187.04,9110682.07,8.9
509190.41,9110678.17,8.6
509202.01,9110678.11,8.4
509189.49,9110672.9,8.3
509209.19,9110680.68,8.1
509197.29,9110676.24,8.1
509200.43,9110667.66,8.1
509203.83,9110663.87,7.9
509207.12,9110660.06,7.6
509199.18,9111163.89,7.4
509210.18,9110656.06,7.2
509198.91,9111168.94,6.5
509189.31,9110591.71,5.7
509192.34,9110587.62,5.6
509195.35,9110583.59,5.3
509198.31,9110579.43,5.1
509201.22,9110575.23,4.9
509204.01,9110570.98,4.7
509207.54,9110565.6,4.2
509186.99,9110514.55,3.1
509191.94,9110508.48,2.9
509195.37,9110503.54,2.6
509198.32,9110499.36,2.4
509201.46,9110495.22,2
509205.99,9110489.97,1.7
509188.8,9110417.52,0
509192.06,9110413.29,-0.2
509199.23,9110404.71,-0.4
509202.85,9110400.76,-0.8
509206.99,9110396.43,-0.9
509190.85,9110352.94,-1.5
509194.23,9110349.24,-1.6
509197.47,9110345.42,-1.8
509200.75,9110341.4,-2
509203.8,9110337.42,-2.1
509195.43,9110318.88,-2.2
509206.76,9110333.38,-2.2
509190.13,9110316.41,-2.3
509209.71,9110329.23,-2.6
509195.77,9110408.8,-2.9
509200.45,9110321.2,-3.4
509192.39,9110251.83,-3.6
509189.18,9110256.35,-3.7
509195.82,9110246.73,-3.7
509202.76,9110236.31,-3.8
509205.6,9110323.63,-4.1
509199.63,9110241,-4.5
509205.64,9110231.98,-4.5
509207.89,9110162.54,-4.7
509188.29,9110183.57,-5.1
509204.43,9110166.22,-5.4
509194.27,9110177.13,-5.7
509198.77,9110172.36,-5.7
509172.03,9111026.35,18.7
509161.12,9110964.24,18.3
509175.37,9111022.3,18.1
509167.65,9110956.98,18.1
509179.12,9111017.29,18
509184.39,9111009.73,17.7
509175.44,9110947.64,17.7
509168.53,9111030.11,17.6
509171.01,9110953.16,17.6
509178.45,9110943.63,17.5
509181.5,9110939.23,17.4
509184.26,9110935.04,17.1
509172.5,9110927.09,16.8
509181.77,9110930.56,16.2
509165.84,9110922.66,16.2
509164.73,9111033.72,15.9
509161.25,9111037.36,15.6
509162.17,9110868.53,14.4
509166.41,9110863.02,14.3
509169.9,9110858.86,13.7
509180.42,9110846.28,13.6
509179.47,9111106.36,13.5
509163.52,9110800.28,13.4
509183.58,9110842.19,13.4
509181.81,9111101.8,13.4
509175.42,9110852.42,13.3
509166.45,9110795.97,13.2
509175.54,9111114,13.2
509172.47,9111120.61,13.1
509169.12,9110791.64,12.9
509171.64,9110787.22,12.8
509177.94,9110776.1,12.8
509174.28,9110782.39,12.6
509170.04,9111125.01,12.4
509181.38,9110770.73,12.4
509184.32,9110766.44,12.1
509167.28,9111129.3,11.9
509164.27,9111133.32,11
509168.83,9110704.09,10.6
509161.99,9110711.51,10.5
509165.41,9110707.86,10.2
509161.11,9111137.25,10.1
509172.64,9110699.47,10
509175.81,9110695.52,9.6
509183.79,9110685.87,9
509179,9110691.63,9
509162.67,9110661.12,8.4
509177.67,9110667.74,8.3
509168.36,9110663.7,8.3
509182.57,9110669.85,8.2
509162.73,9110626.7,7.5
509165.84,9110622.71,7.4
509170.45,9110616.81,7.3
509173.98,9110612.13,6.8
509177.41,9110607.53,6.7
509180.46,9110603.42,6.4
509183.66,9110599.19,6.1
509163.56,9110541.16,4.5
509166.56,9110537.09,4.3
509170.71,9110531.9,4.1
509174.99,9110526.8,3.8
509178.99,9110522.88,3.7
509182.53,9110519.31,3.5
509161.15,9110451.7,1.5
509166.3,9110446.02,1.4
509169.62,9110442.12,1.1
509173.28,9110437.47,0.8
509176.5,9110433.37,0.7
509179.68,9110429.37,0.5
509182.75,9110425.42,0.2
509161.04,9110386.13,-1
509185.31,9110358.74,-1.3
509167.17,9110379.75,-1.3
509181.2,9110363.4,-1.3
509171.42,9110374.69,-1.6
509175.52,9110369.9,-1.6
509160.46,9110301.62,-2.1
509165.64,9110304.05,-2.1
509185.23,9110314.05,-2.3
509172.52,9110307.53,-2.3
509180.52,9110311.67,-2.3
509162.75,9110290.94,-2.5
509165.97,9110286.92,-2.5
509169.67,9110282.42,-2.7
509172.96,9110278.26,-2.8
509176.38,9110273.9,-3
509185.33,9110261.8,-3.6
509180.2,9110268.86,-3.7
509165.38,9110208.58,-3.8
509168.83,9110204.76,-4
509175.9,9110197.6,-4
509161.96,9110212.55,-4.1
509172.34,9110201.14,-5.1
509174.23,9110109.38,-5.1
509168.53,9110115.38,-5.2
509163.63,9110121.1,-5.5
509179.45,9110193.8,-5.5
509178.25,9110105.71,-5.5
509183.35,9110102.74,-5.8
509184.8,9110187.63,-6.1
509151.19,9110975.97,18.8
509147.86,9110980.37,18.6
509154.46,9110971.87,18.5
509141.44,9110990.14,17.4
509157.73,9110967.97,17.3
509144.96,9110984.62,17.3
509137.71,9110995.91,16.6
509146.69,9110905.64,16.2
509155.49,9110914.13,16.2
509142.59,9110902.6,16.1
509159.53,9110917.52,15.9
509139.37,9111065.23,15.9
509151.48,9110910.02,15.9
509140.86,9110895.44,15.8
509150.91,9111049.8,15.7
509154.96,9111044.5,15.7
509136.63,9110899.35,15.7
509147.81,9111053.92,15.6
509144.48,9111058.21,15.6
509144.8,9110891.08,15.3
509136.44,9111069.34,14.9
509150.82,9110883.21,14.5
509158.9,9110872.73,14.5
509154.57,9110878.36,14.2
509157.83,9110807.83,13.8
509141.22,9110830.26,13.8
509136.45,9110837.84,13.8
509144.73,9110825.09,13.7
509154.61,9110812.17,13.6
509149.39,9110818.78,13.6
509139.84,9110742.77,12.3
509143.09,9110738.4,12.2
509136.71,9110746.84,12
509147.25,9110732.47,11.9
509150.07,9110728.31,11.3
509152.96,9110724,11.1
509155.81,9110719.77,10.9
509158.71,9110715.61,10.5
509139.33,9110655.88,9.1
509157.77,9111141.24,8.8
509146.74,9110653.71,8.7
509136.85,9110649.03,8.7
509151.3,9110655.85,8.5
509141.54,9110651.26,8.2
509156.36,9110658.22,8.2
509146.93,9110646.5,8.1
509150.2,9110642.53,8.1
509153.63,9110638.32,7.9
509158.97,9110631.56,7.8
509154.51,9111145.08,6.2
509142.15,9110574.06,6.2
509138.63,9110577.7,6.1
509149.92,9110563.51,5.8
509146.08,9110569.03,5.8
509152.75,9110559.26,5.6
509155.24,9110554.84,5.2
509158.61,9110548.77,4.8
509150.8,9111148.49,3.9
509138.24,9110481.88,3.3
509141.34,9110477.56,3
509144.43,9110473.44,2.8
509147.49,9110469.46,2.6
509150.93,9110464.9,2.2
509153.94,9110460.77,2
509146.04,9111150.22,1.8
509157,9110456.71,1.8
509135.55,9110411.18,0.8
509139.88,9110406.48,0.8
509143.43,9110402.84,0.5
509147.52,9110398.85,0.4
509141.03,9111150.66,0.1
509135.95,9111150.12,-0.5
509151.25,9110395.36,-0.7
509156.27,9110390.62,-0.9
509150.51,9110307.16,-2
509141.05,9110319.95,-2
509146.47,9110295.19,-2.1
509153.66,9110302.72,-2.1
509157.7,9110297.41,-2.2
509139.36,9110291.89,-2.2
509152.02,9110297.72,-2.2
509145.89,9110313.42,-2.6
509140.86,9110236.71,-3
509136.79,9110243.6,-3
509146.95,9110229.27,-3.4
509158.69,9110216.48,-3.4
509151.27,9110224.73,-3.8
509155.17,9110220.52,-3.8
509140.72,9110092.86,-5.2
509137.51,9110157.61,-5.3
509138.78,9110075.13,-5.4
509145.22,9110146.5,-5.8
509142.41,9110087.42,-5.9
509149.45,9110140.46,-5.9
509160.37,9110125.26,-5.9
509157.28,9110129.36,-6.1
509140.43,9110153.43,-6.1
509153.01,9110135.36,-6.1
509141.52,9110079.77,-6.2
509136.83,9110098.22,-6.4
509127.87,9111008.94,18.4
509131.97,9111004.36,17.9
509123.3,9111013.83,17.6
509122.53,9110916.06,17.3
509134.98,9111000.25,17.1
509117.82,9110923.45,17
509119.06,9111018.89,17
509125.38,9110911.88,16.9
509128.39,9110907.74,16.6
509115.34,9110927.81,16.5
509132.59,9110902.8,16.2
509126.59,9110894.93,16
509115.9,9111022.93,16
509118.7,9110891.37,15.8
509131.26,9110896.94,15.8
509112.47,9110933.14,15.8
509114.1,9110888.53,15.6
509111.62,9110878.02,15.5
509115.24,9110873.15,15.5
509119.85,9110866.5,15.4
509122.51,9110862.12,15.1
509124.94,9110857.65,14.8
509132.9,9111074.51,14.7
509127.3,9110853.11,14.6
509129.79,9110848.71,14.5
509112.72,9111027.07,14.4
509133.7,9110842.21,14.2
509113.78,9110776.07,13.9
509117.96,9110770.79,13.8
509121.18,9110766.62,13.3
509129.91,9111078.65,13.3
509125.05,9110761.72,13.2
509123.8,9111086.19,13.1
509129.52,9110756.02,12.7
509133.24,9110751.29,12.2
509120.32,9111090.25,11.4
509116.53,9110685.84,10.8
509113.14,9110691.51,10.8
509119.27,9110681.48,10.4
509116.71,9111093.82,10.1
509122.2,9110677.2,9.8
509125.28,9110673.04,9.5
509130.76,9110666.19,9.4
509112.2,9111098.09,9.2
509134.21,9110662.04,9.1
509122.31,9110641.79,8.5
509117.13,9110639.17,8.4
509132.35,9110646.84,8.3
509126.97,9110644.16,8.3
509112.24,9110613.9,7.7
509115.22,9110609.82,7.5
509119.02,9110604.2,7.4
509121.73,9110599.72,7.2
509124.39,9110595.26,6.9
509130.09,9110587.32,6.6
509135.11,9110581.37,6.4
509113.25,9110516.82,5
509116.15,9110512.66,4.7
509119.94,9110507.37,4.6
509123.21,9110502.76,4.2
509127.73,9110496.24,4
509130.79,9110492.09,3.8
509133.8,9110488.05,3.6
509114.98,9110435.39,2.1
509118.32,9110431.54,2
509121.66,9110427.65,1.9
509124.96,9110423.76,1.6
509128.81,9110419.24,1.5
509132.23,9110415.08,1.2
509110.82,9110363.76,0.1
509118.05,9110353.5,-0.1
509120.89,9110349.35,-0.4
509128.27,9110337.97,-1
509131.39,9110333.24,-1.1
509135.3,9110327.71,-1.2
509114.89,9110358.09,-1.2
509129.16,9110287.07,-2
509123.03,9110284.21,-2
509134.71,9110289.66,-2.1
509113.25,9110275.59,-2.2
509116.95,9110281.29,-2.3
509116.84,9110272.03,-2.5
509121.57,9110267.01,-2.6
509128.07,9110258.99,-2.7
509124.99,9110263.04,-2.7
509123.7,9110345.06,-2.8
509130.91,9110254.46,-2.8
509134.47,9110248.04,-3
509122.05,9110178.46,-4
509111.07,9110191.11,-4.1
509126.56,9110172.62,-4.3
509129.58,9110168.63,-4.3
509116.33,9110184.87,-4.3
509132.56,9110164.54,-4.6
509122.7,9110110.55,-4.9
509127.47,9110106.3,-5.2
509116.92,9110116.01,-5.6
509131.6,9110102.89,-5.9
509112,9110120.87,-6.1
509087.31,9110969.78,18.5
509091.88,9110962.65,18
509097.86,9110954.14,17
509101.37,9110949.64,16.9
509094.71,9110958.48,16.7
509098.05,9110898.56,16.4
509106.35,9110943.16,16.4
509109.13,9110938.81,16.3
509101.45,9110893.49,16.3
509104.48,9110888.41,16
509100.55,9110878.92,15.9
509094.98,9110875.4,15.9
509089.03,9110873.66,15.8
509086.12,9110911.54,15.8
509093.91,9110903.37,15.7
509106.87,9110883.67,15.6
509090.44,9110906.98,15.2
509086.05,9110808.8,14.3
509089.4,9110804.62,14
509109.46,9111031.03,14
509104.58,9111036.46,13.9
509096.95,9110795.39,13.9
509092.62,9110800.62,13.8
509105.1,9110786.46,13.7
509110.21,9110780.66,13.7
509101.14,9110790.57,13.6
509100.82,9111040.25,13.4
509090.91,9111049.7,13.3
509094.59,9111046.15,12.9
509086.16,9111055.07,12.4
509089.53,9110729.6,12.1
509098.32,9110716,11.9
509095,9110721.15,11.8
509092.32,9110725.38,11.5
509103.33,9110708.15,11.4
509105.96,9110703.85,11
509108.83,9110698.99,10.9
509087.61,9110643.39,9.6
509090.82,9110639.37,9.5
509094.12,9110635.59,9.3
509108.3,9111103.09,9.1
509106.02,9111111.35,8.9
509086.41,9110622.98,8.9
509097.51,9110631.88,8.8
509090.87,9110625.34,8.6
509108.45,9110634.69,8.6
509103.95,9110632.31,8.4
509105.84,9110622.48,8.3
509100.93,9110628.22,8.3
509108.91,9110618.5,8.1
509105.19,9111117.96,7.2
509089.11,9110551.91,6.7
509092.74,9110546.89,6.3
509096.1,9110542.27,6.2
509101.27,9110535.11,5.8
509104.49,9110530.41,5.6
509109.66,9110522.3,5.2
509087.5,9110470.41,3.9
509090.32,9110466.27,3.6
509093.29,9110462.11,3.5
509096.72,9110457.43,3.2
509100.37,9110452.78,3.1
509105.01,9110447.1,2.9
509108.5,9110442.99,2.6
509087,9110393.42,1.4
509090.15,9110389.3,1.2
509093.47,9110385.19,1.1
509096.73,9110381.24,1
509099.95,9110377.24,0.8
509103.7,9110372.55,0.7
509107.67,9110367.73,0.5
509089.82,9110311.54,-1
509092.4,9110307.18,-1.3
509094.96,9110302.55,-1.4
509097.6,9110297.72,-1.5
509100.13,9110292.97,-1.7
509097.53,9110270.76,-1.9
509087.73,9110265.6,-2
509105.95,9110283.61,-2
509103.06,9110287.78,-2
509109.2,9110279.76,-2.1
509103.2,9110273.98,-2.1
509093.04,9110268.27,-2.2
509086.16,9110234.16,-2.9
509092.13,9110224.94,-2.9
509089.38,9110229.41,-3.1
509095.37,9110219.17,-3.1
509097.76,9110214.71,-3.4
509102.13,9110206.06,-3.4
509105.63,9110199.51,-4
509096.27,9110140.12,-4.4
509089.96,9110148.19,-4.5
509100.84,9110134.22,-4.7
509087.2,9110061.62,-5.1
509091.97,9110059.74,-5.3
509108.57,9110124.67,-5.8
509104.27,9110129.91,-5.8
509093.13,9110144.13,-5.9
509081.38,9110979.51,18.2
509084.66,9110974.03,17.9
509078.6,9110983.75,16.6
509064.12,9110938.68,16.5
509074.77,9110925.17,16.5
509071.51,9110929.1,16.3
509079.26,9110919.59,16.2
509074.95,9110989.06,16
509080.52,9110871.51,15.8
509082.56,9110915.55,15.8
509071.39,9110869.04,15.7
509060.99,9110943,15.6
509068.4,9110933.09,15.6
509065.41,9110867.13,15.4
509071.93,9110993.31,15.4
509060.53,9110865.68,15.2
509073.76,9110823.49,15
509077.41,9110819.33,14.9
509068.56,9110829.46,14.8
509065.96,9111001.33,14.6
509062.2,9110837.8,14.6
509082.45,9110813.26,14.3
509062.41,9111005.88,14.3
509068.06,9110755.43,13.9
509065.13,9110833.7,13.8
509071.31,9110751.52,13.6
509062.72,9110761.87,13.5
509076.75,9110745.07,13.3
509080.08,9110741.19,13
509083.49,9110737.3,12.6
509083.15,9111059.15,11.6
509067.52,9110672.98,11.2
509069.02,9111079.32,11.1
509070.46,9110668.72,11
509062.58,9110680.09,10.9
509066.56,9111083.7,10.7
509074.31,9111071.44,10.6
509080.15,9111063.27,10.5
509064.37,9111088.28,10.3
509073.36,9110664.37,10.3
509076.01,9110660.13,10
509078.91,9110655.57,10
509081.72,9110651.35,9.9
509077.23,9111067.34,9.8
509074.1,9110616.38,9.2
509078.53,9110618.76,8.9
509069.04,9110613.65,8.7
509064.48,9110611.21,8.4
509062.9,9110594.86,8.2
509065.49,9110590.51,7.8
509069.26,9110584,7.8
509072.82,9110577.65,7.7
509075.48,9110573.01,7.5
509080.03,9110565.64,7.4
509062.16,9111092.78,7
509084.69,9110558.46,6.8
509062.17,9110506.51,5.7
509069.43,9110496.5,5.4
509065.08,9110502.36,5.3
509072.56,9110492.21,5
509076.06,9110487.38,4.8
509079.06,9110483.16,4.7
509081.87,9110478.9,4.4
509084.68,9110474.66,4.1
509063.58,9110422.77,2.6
509066.68,9110418.84,2.4
509071.03,9110413.58,2.1
509074.42,9110409.7,2
509077.82,9110405.82,2
509081.06,9110401.85,1.7
509084,9110397.77,1.5
509062.2,9110348.89,0.4
509065.66,9110345.14,0.2
509069.44,9110340.59,-0.1
509073.52,9110335.31,-0.2
509076.54,9110331.16,-0.4
509079.46,9110326.86,-0.6
509082.43,9110322.37,-0.7
509085.33,9110318.18,-1.1
509062.47,9110270.49,-1.9
509066.19,9110265.47,-2
509077.85,9110260.96,-2.1
509082.89,9110263.24,-2.2
509072.15,9110258.5,-2.2
509065.32,9110255.61,-2.4
509075.47,9110250.05,-2.4
509079.17,9110244.39,-2.6
509083.22,9110238.5,-2.7
509063.89,9110179.54,-3.3
509071.29,9110171.02,-3.3
509060.44,9110183.27,-3.6
509067.19,9110175.74,-3.8
509085.24,9110154.1,-4
509074.7,9110167.04,-4.1
509081.89,9110158.13,-4.3
509078.72,9110162.03,-4.4
509078.06,9110070.59,-5.1
509070.39,9110080.97,-5.3
509066.05,9110087.54,-5.4
509082.11,9110066.08,-5.5
509063.08,9110092.01,-5.6
509074.88,9110074.69,-5.6
509051.26,9110957.33,17.6
509048.1,9110961.36,17
509055.29,9110951.78,17
509044.55,9110965.47,16.9
509040.81,9110969.14,16.5
509058.16,9110947.38,16.4
509059.22,9111009.86,15.7
509054.4,9111015.29,15.7
509042.09,9110862.19,15.2
509058.07,9110844.16,15.1
509050.76,9111019.07,14.8
509036.75,9110868.02,14.7
509055.96,9110863.64,14.7
509053.62,9110849.7,14.7
509037.43,9110794.2,14.6
509044.4,9111026.19,14.6
509051.94,9110774.79,14.5
509048.12,9110779.78,14.5
509043.31,9110786.3,14.2
509038.66,9110854.98,14.1
509045.08,9110858.09,14.1
509055.22,9110770.7,14.1
509059.28,9110765.88,14
509040.97,9111030.56,13.4
509038.18,9111034.94,13.1
509049.49,9110854.03,12.8
509037.95,9110710.3,12.7
509049.89,9110860.38,12.7
509041.75,9110705.82,12.6
509046.18,9110701.12,12.2
509052.07,9110694.28,11.5
509055.74,9110689.54,11.4
509058.69,9110685.5,11.1
509036.65,9110635.18,10.1
509039.57,9110631.04,9.5
509042.38,9110626.86,9.5
509045.21,9110622.65,9.3
509048.75,9110617.26,9.1
509047.47,9110601.76,8.7
509059.9,9110608.71,8.7
509054.1,9110608.97,8.7
509037.75,9110596.35,8.6
509057.06,9110604.32,8.5
509042.29,9110598.87,8.5
509052,9110604.31,8.5
509060.04,9110599.56,8.3
509059.4,9111098.49,8
509039.27,9110542.71,7.1
509042.08,9110538.54,7.1
509045.7,9110532.8,6.6
509056.4,9111102.68,6.5
509048.34,9110528.51,6.4
509051.01,9110524.09,6.2
509053.82,9110519.48,6
509059.2,9110511.08,5.9
509052.39,9111105.92,5.4
509037.81,9110451.66,4
509041.26,9110447.87,3.8
509045.83,9110442.79,3.4
509049.63,9110438.49,3.4
509053.34,9110434.38,3.1
509056.71,9110430.55,2.9
509040.9,9111107.09,2.7
509047.59,9111107.4,2.5
509036.7,9110381.13,1.8
509040.05,9110377.19,1.6
509043.31,9110373.31,1.3
509047.66,9110367.28,1.1
509050.42,9110362.9,0.9
509054.95,9110356.56,0.8
509058.37,9110352.8,0.6
509036.94,9110302.69,-0.5
509041.95,9110296.63,-0.6
509052.94,9110283.04,-1.2
509049.57,9110287.14,-1.2
509045.15,9110292.64,-1.3
509059.13,9110274.89,-1.5
509056.1,9110278.99,-1.7
509045.25,9110247.72,-1.8
509039.94,9110245.67,-1.9
509049.96,9110249.47,-1.9
509059.05,9110253.03,-2
509038.86,9110210.03,-2.4
509035.94,9110214.25,-2.6
509043.16,9110203.9,-2.8
509051.41,9110193.11,-2.9
509046.15,9110199.79,-3
509056.51,9110187.3,-3.3
509041.71,9110121.6,-4.2
509051.43,9110108.66,-4.6
509054.94,9110103.79,-4.8
509041.18,9110069.91,-4.8
509046.31,9110115.52,-4.9
509055.95,9110051.7,-4.9
509038.45,9110125.73,-5
509057.19,9110034.58,-5.1
509057.75,9110039.65,-5.2
509050.93,9110059.85,-5.2
509060.2,9110096.25,-5.3
509055.98,9110029.71,-5.5
509045.76,9110065.38,-5.6
509057.68,9110044.71,-5.7
509034.94,9110974.85,16.5
509027.7,9110982.07,16
509023.96,9110986.24,15.8
509015.17,9110896.26,15.8
509031.19,9110978.41,15.8
509018.07,9110992.01,15.6
509014.58,9110824.26,15.6
509013.98,9110995.52,15.5
509018.06,9110820.55,15.4
509010.82,9110827.68,15.4
509030.32,9110875.8,15.2
509024.34,9110883.45,15.1
509018.09,9110892.14,15.1
509025.27,9110810.34,15
509021.57,9110815.96,14.9
509028.23,9110806.24,14.6
509033.43,9110871.81,14.6
509021.06,9110887.92,14.5
509031.89,9110801.39,14.2
509015.87,9110738.98,14.2
509011.98,9110743.76,14.2
509024.02,9110728.66,14.1
509026.73,9110851.5,14
509012.14,9110847.35,14
509019.14,9110735.04,13.7
509033.85,9110853.18,13.5
509027.27,9110724.21,13.5
509030.94,9110719.42,13.4
509016.98,9110848.68,13.4
509034.14,9110715.26,13.1
509034.98,9111042.58,13
509021.84,9110850.04,11.9
509013.21,9110664.96,11.9
509016.42,9110660.94,11.4
509026.24,9110648.69,11.1
509029.62,9110644.41,11.1
509019.66,9110656.89,11
509032.81,9110640.32,10.9
509022.96,9110652.8,10.8
509033.66,9111047.48,10.5
509031.46,9111053.59,10.4
509029.19,9111059.11,9.5
509026.22,9111063.44,9.4
509016.3,9111067.82,9.3
509025.58,9110589.55,9.1
509018.81,9110585.82,9
509014.26,9110583.4,8.6
509030.11,9110592.08,8.6
509021.7,9111065.6,8.5
509016.7,9110574.25,8.3
509021.78,9110567.15,8.2
509028.33,9110557.64,8.1
509012.58,9111071.22,8
509024.59,9110563.01,8
509031.33,9110553.42,7.8
509034.3,9110549.35,7.6
509015.92,9110475.36,5.6
509019.5,9110471.48,5.4
509022.81,9110467.72,4.8
509026.58,9110463.5,4.6
509032.55,9110457.08,4.4
509012.72,9110413.73,3.5
509017.62,9110407.65,3.2
509020.78,9110403.51,3.1
509023.77,9110399.43,2.6
509026.95,9110394.73,2.4
509030.12,9110389.92,2.1
509033,9110385.81,1.9
509012.57,9110334.05,1
509016.28,9110329.74,0.7
509019.53,9110325.8,0.7
509022.71,9110321.79,0.5
509025.76,9110317.69,-0.1
509032.74,9110308.05,-0.3
509028.94,9110313.2,-0.9
509011.18,9110257.03,-1
509013.66,9110252.61,-1.3
509019.58,9110242.26,-1.6
509024.72,9110238.89,-1.6
509016.13,9110248.26,-1.6
509017.89,9110235.56,-1.7
509029.35,9110241.06,-1.7
509034.92,9110243.52,-1.8
509012.76,9110232.81,-1.8
509024.73,9110233.13,-1.9
509027.13,9110228.69,-2.1
509029.7,9110224.18,-2.2
509032.51,9110219.54,-2.4
509016.21,9110152.3,-3.6
509011.93,9110157.62,-3.7
509035.1,9110129.84,-3.7
509014.96,9110101.59,-4.1
509031.81,9110133.71,-4.1
509011.8,9110105.72,-4.3
509026.91,9110139.49,-4.3
509022.32,9110145.02,-4.6
509024.38,9110088.5,-4.7
509028.52,9110083.47,-4.8
509017.92,9110097.47,-5.1
509034.71,9110076.68,-5.2
509021.1,9110092.93,-5.7
508987.85,9110930.45,16.4
509003.1,9110911.36,16.3
509010.33,9110902.32,16.3
508999.93,9110915.57,15.9
509006.6,9110906.87,15.9
508991.31,9110849.57,15.7
508996.65,9110919.73,15.4
509010,9110998.79,15.3
509001.53,9110836.62,15.3
508986.31,9110856.4,15.3
508989.03,9110841.96,15.2
508994.3,9110765.37,14.9
508990.46,9110772.64,14.9
509005.16,9110832.78,14.8
508998.25,9110759.37,14.7
509005.88,9111002.48,14.7
509002.64,9110754.56,14.6
508994.81,9110845.04,14.5
509006.42,9110750.1,14.5
508987.65,9110778.19,14.4
508997.99,9110841,14.1
509001.67,9110845.04,14
509007.24,9110846.13,13.9
508991.16,9110926.52,13.6
509001.88,9111006.43,13.2
508994.98,9110686.37,12.8
508999.98,9110680.6,12.8
509008.37,9110670.83,12.6
509003.4,9110676.67,12.5
508998.48,9111010.15,12.5
508989.16,9110693.26,12.3
508994.95,9111014.31,12
508987.62,9111023.13,11.9
508991.58,9111018.35,11.5
508987.85,9110612.65,10.1
508996.5,9110602.1,10
508991.21,9110608.69,9.9
508999.57,9110598.02,9.5
509002.53,9110593.98,9.2
509008.27,9110585.84,9
508986.57,9110567.15,8.8
509005.14,9110578.51,8.8
508991.18,9110570.06,8.6
508999.31,9110575.09,8.4
509009.67,9110580.96,8.4
509009.4,9111077.77,7.5
508987.85,9110511.47,7.2
508990.88,9110507.46,6.8
508994.03,9110503.43,6.7
508997.55,9110498.82,6.5
509000.46,9110494.6,6.1
509003.48,9110490.14,6
509006.71,9110485.84,6
509010.04,9110481.82,5.8
508986.58,9110445.3,4.8
508990.15,9110440.52,4.8
508993.16,9110436.35,4.7
508997.1,9110431.47,4.5
509001.55,9110426.48,4.2
509004.95,9110422.67,4.1
509008.39,9110418.76,3.9
508989.92,9110360.91,2
508993.26,9110357.08,1.9
508997.02,9110352.82,1.7
509005.41,9110342.66,1.4
509000.32,9110348.92,1.4
509008.75,9110338.67,1.3
508985.62,9110288.68,0
508990.02,9110284.33,-0.1
508993.78,9110280.93,-0.3
508997.62,9110277.2,-0.5
509002.5,9110271.38,-0.6
509007.12,9110264.17,-1.1
509006.43,9110229.29,-1.6
508999.37,9110225.45,-1.6
508994.94,9110222.9,-1.8
508988.14,9110218.64,-1.9
508987.54,9110191.97,-2.7
508990.6,9110187.68,-2.7
508993.59,9110183.58,-2.9
508997.17,9110178.6,-3.1
509000.35,9110174.09,-3.2
509005.19,9110167.21,-3.3
509008.05,9110163.02,-3.6
508990.9,9110129.39,-3.8
508996.5,9110123.66,-3.9
508986.67,9110133.27,-4
509007.54,9110111.02,-4.4
509003.55,9110115.89,-4.5
508985.56,9110030.03,-4.8
509000.08,9110119.84,-4.9
508993.23,9110020.89,-5.2
509002.26,9110008.47,-5.2
508997.76,9110013.9,-5.4
508989.08,9110025.49,-6.3
508983.48,9110935.14,16.9
508978.93,9110939.96,16.7
508960.79,9110834.04,16.4
508978.8,9110839.23,16.4
508974.18,9110945.92,16.4
508965.63,9110835.83,16.3
508973.65,9110837.78,16.3
508984.08,9110840.78,16.2
508968.92,9110952.57,16
508983.46,9110860.56,16
508962.02,9110891.75,15.9
508964,9110805.31,15.8
508978.52,9110867.54,15.6
508976.08,9110790.95,15.6
508965.83,9110885.37,15.6
508968.37,9110800.14,15.5
508979.79,9110787.54,15.3
508971.68,9110795.98,15.3
508965.7,9110956.57,15.3
508964.96,9110727.1,14.9
508974.46,9110872.8,14.9
508967.97,9110723.03,14.8
508968.52,9110880.96,14.4
508962.5,9110960.45,14.3
508971.4,9110876.84,14.2
508984.1,9110783.3,14.2
508971.01,9110718.98,14.1
508975.76,9110712.2,14
508979.34,9110706.62,13.2
508985.16,9110698.36,12.8
508961.83,9110642.56,11.4
508969.56,9110633.73,11.2
508978.2,9111034.9,11.2
508965.64,9110638.21,11.2
508984.45,9111027.04,11.2
508975.25,9110627.16,11.2
508980.47,9110621.28,11
508983.84,9110617.38,10.5
508975.12,9111038.87,10.4
508981.31,9111030.96,9.9
508967.37,9110555.3,9
508971.49,9111043.88,9
508975.28,9110560.02,8.8
508970.25,9110537.87,8.7
508964.86,9110546.21,8.7
508973,9110533.67,8.5
508979.55,9110562.67,8.4
508975.74,9110529.41,8.1
508978.57,9110525.03,7.8
508981.62,9110520.52,7.8
508984.43,9110516.35,7.4
508961.24,9110480.62,6.9
508965.74,9110474.01,6.6
508968.16,9111047.77,6.3
508969.47,9110468.43,6.3
508972.27,9110464.24,5.9
508976.51,9110458.42,5.7
508980.34,9110453.46,5.4
508983.49,9110449.42,5.1
508964.44,9111051.16,4.4
508963.11,9110392.27,3.6
508966.36,9110388.31,3.3
508971.44,9110382.15,3
508976.83,9110375.82,2.8
508980.22,9110371.96,2.6
508983.71,9110368.04,2.4
508961.55,9110315.29,1
508965.36,9110310.46,0.9
508968.89,9110306.18,0.6
508973.96,9110300.79,0.5
508977.51,9110296.88,0.3
508982.06,9110292.27,0.1
508960.54,9110232.26,-1.1
508969.96,9110217.59,-1.3
508963.31,9110228.03,-1.4
508966.87,9110222.53,-1.4
508973.01,9110212.97,-1.5
508979.29,9110212.75,-1.6
508983.54,9110215.62,-1.7
508975.97,9110208.85,-1.8
508970.89,9110207.05,-1.9
508966.36,9110204.19,-2
508978.89,9110204.7,-2
508983.84,9110197.45,-2.1
508970.99,9110146.88,-3
508960.92,9110157.23,-3
508974.74,9110143.49,-3.1
508965.45,9110152.26,-3.2
508982.47,9110136.77,-3.3
508978.62,9110140.04,-3.8
508960.84,9109995.71,-5.1
508965.14,9110059.67,-5.2
508978.06,9110042.63,-5.3
508967.38,9109976.92,-5.4
508961.45,9110065.83,-5.5
508968.69,9110055.42,-5.5
508965.74,9109989.37,-5.5
508967.91,9109983.78,-5.5
508973,9110050.18,-6.1
508982.77,9110034.85,-6.4
508949.54,9110821.49,16.8
508949.73,9110829.82,16.6
508941.72,9110825.34,16.6
508955.92,9110832.23,16.5
508952.7,9110817.58,16.5
508956.87,9110812.89,16.2
508936.24,9110821.97,16.2
