507194.92,9161006.9,0.6
507199.55,9161262.11,0.6
507196.64,9161030.05,0.6
507195.87,9161203.17,0.6
507195.41,9161188.63,0.5
507198.89,9161256.19,0.4
507196.85,9161035.48,0.4
507196.92,9161043.01,0.4
507195.64,9161193.92,0.4
507195.36,9161183.53,0.4
507195.9,9161018.06,0.4
507198.18,9161250.77,0.4
507195.73,9161208.23,0.4
507196.68,9161048.17,0.3
507195.78,9161213.81,0.3
507195.22,9161178.3,0.3
507195.63,9161058.21,0.3
507197.48,9161244.08,0.3
507195.09,9161064.39,0.2
507196.29,9161053.22,0.2
507197.12,9161237.16,0.2
507192.92,9161088.19,0.1
507193.46,9161081.86,0.1
507194.99,9161168.77,0.1
507192.17,9161101.98,0.1
507194.93,9161162.47,0.1
507195.89,9161218.98,0.1
507192.58,9161094.06,0
507196.88,9161231.9,0
507191.83,9161113.31,0
507195.36,9161365.85,0
507194.67,9161155.68,0
507194.14,9161073.46,0
507191.66,9161121.38,0
507194.42,9161150.59,-0.1
507193.93,9161143.86,-0.1
507196.25,9161224.22,-0.1
507192.03,9161107.09,-0.1
507193.05,9161135.99,-0.1
507191.92,9161126.97,-0.2
507198.89,9161369.56,-1.2
507152.38,9161328.76,6.3
507151.62,9161320.23,6
507152.58,9161333.9,5.9
507152.82,9161340.89,5.2
507151.54,9161347.82,5
507151.08,9161315.22,4.7
507150.49,9161310.09,4
507148.95,9161352.14,3.8
507149.87,9161304.99,3.4
507148.45,9161287.44,2.8
507148.5,9161279.71,2.8
507148.66,9161274.7,2.7
507148.9,9161269.46,2.7
507149.37,9161299.83,2.6
507148.6,9161292.5,2.5
507149.04,9161264.44,2.3
507149.17,9161259.29,1.8
507133.51,9160989.69,1.6
507149.34,9161254.26,1.3
507141.14,9160994.81,0.9
507148.76,9161222.67,0.9
507149.43,9161249.18,0.9
507146.45,9161009.01,0.8
507133.91,9160964.8,0.8
507147.05,9161020.69,0.8
507149.05,9161228.28,0.7
507148.12,9161216.9,0.7
507149.37,9161244.09,0.7
507147.42,9161027.02,0.7
507149.18,9161233.43,0.7
507149.24,9161238.61,0.6
507143.97,9160999.51,0.6
507147.89,9161033.21,0.5
507146.65,9161014.09,0.5
507148.01,9161038.34,0.4
507147.96,9161043.38,0.3
507147.22,9161207.84,0.2
507147.31,9161174.17,0.2
507146.78,9161182.11,0.2
507147.68,9161048.48,0.2
507146.31,9161059.42,0.2
507146.86,9161200.85,0.1
507146.55,9161187.12,0.1
507147.12,9161053.7,0.1
507146.61,9161195.73,0.1
507147.5,9161167.29,0
507143.78,9161087.28,-0.1
507145.43,9161065.84,-0.1
507144.35,9161073.04,-0.1
507147.32,9161162.17,-0.1
507144.24,9161099.64,-0.1
507145.54,9161114.08,-0.1
507143.94,9161082.28,-0.2
507143.86,9161093.14,-0.2
507145.52,9161123.03,-0.2
507144.65,9161137.07,-0.2
507145.13,9161128.09,-0.2
507146.82,9161157.08,-0.3
507145.66,9161149.52,-0.3
507145.12,9161109,-0.3
507144.84,9161142.33,-0.3
507138.3,9160962.32,-2.2
507143.41,9160961.5,-3.1
507128.54,9160972.68,2
507127.7,9160977.67,1.5
507129.75,9160984.86,1.3
507105.45,9161020.2,0.3
507105.21,9161013.22,0.3
507101.07,9160970.76,1.9
507101.67,9160978.32,1.8
507095.7,9161267.79,1.6
507102.34,9160986.78,1.6
507099.09,9161222.07,1.6
507094.5,9161274.97,1.6
507097.25,9161259.69,1.5
507093.33,9161281.52,1.5
507089.69,9161295.28,1.4
507099.19,9161232.8,1.4
507099.14,9161227.08,1.4
507102.79,9160991.91,1.4
507088.51,9161300.14,1.3
507099.04,9161243.73,1.3
507098.37,9161253.85,1.3
507092.23,9161286.5,1.3
507099.22,9161237.95,1.3
507087.59,9161305.14,1.2
507098.93,9161248.8,1.2
507086.99,9161310.17,1.1
507103.25,9160996.9,0.9
507099.03,9161212.51,0.8
507092.65,9161340.48,0.6
507086.86,9161315.29,0.6
507104.1,9161005,0.6
507099.01,9161207.26,0.5
507104.89,9161025.4,0.5
507098.72,9161183.16,0.4
507099.11,9161201.92,0.4
507104.01,9161030.34,0.4
507098.15,9161178.07,0.4
507089.22,9161335.78,0.4
507099.1,9161188.78,0.4
507103,9161035.39,0.3
507087.18,9161328.3,0.3
507099.12,9161196.9,0.3
507097.21,9161171,0.2
507102.42,9161040.38,0.2
507086.77,9161320.41,0.2
507102,9161045.7,0.2
507096.91,9161165.83,0.1
507096.81,9161149,0.1
507097.04,9161121.64,0
507096.88,9161140.75,0
507096.9,9161135.18,0
507096.88,9161156.98,0
507101.54,9161060.9,-0.1
507101.53,9161055.7,-0.1
507097.14,9161116.56,-0.1
507101.58,9161066.85,-0.1
507101.42,9161072.49,-0.1
507096.96,9161127.22,-0.2
507100.74,9161077.81,-0.2
507097.66,9161105.95,-0.2
507097.39,9161111.41,-0.2
507098.47,9161096.04,-0.3
507099.65,9161086.13,-0.3
507096.83,9161343.58,-0.4
507075.42,9156823.57,4.6
507075.81,9156830.01,4.5
507061.71,9156851.66,4.5
507073.86,9156835.8,4.3
507068.14,9156843.8,4
507056.73,9156857.82,4
507064.94,9156847.7,3.9
507034.19,9156885.86,4.2
507053.09,9156862.3,4.2
507038.17,9156880.46,3.8
507041.56,9156876.23,3.8
507044.85,9156872.1,3.8
507048.14,9156868.27,3.8
507031.28,9156890.06,3.8
507032.4,9160946.94,2.1
507034.66,9160942.04,1.8
507032.29,9160952.55,1.8
507033.32,9160957.6,1.5
507034.6,9160962.52,1.2
507054.65,9161251.08,1.1
507052.44,9161236.67,1.1
507054.7,9161245.72,1.1
507053.87,9161256.14,1
507039.14,9160979.38,0.9
507049.75,9161232.32,0.9
507036.81,9160971.21,0.9
507046.47,9161227.62,0.8
507041.5,9160987.69,0.7
507043.54,9161223.45,0.6
507052.4,9161261.34,0.6
507044.29,9160997.43,0.5
507045.89,9161003.02,0.5
507040.53,9161219.4,0.5
507042.91,9160992.55,0.4
507037.38,9161215.48,0.4
507049.36,9161267.59,0.3
507032.23,9161209.31,0.3
507046.56,9161274.09,0.2
507047.9,9161009.5,0.2
507034.97,9161136.86,0.2
507034.49,9161143.55,0.1
507048.86,9161017.78,0.1
507044.09,9161280.5,0.1
507036.76,9161306.34,0.1
507035.22,9161131.54,0.1
507033.67,9161152.08,0.1
507044.37,9161031.73,0.1
507038.44,9161045.91,0.1
507046.67,9161026.47,0
507041.86,9161037.12,0
507034.82,9161126.42,0
507030.73,9161171.61,-0.1
507033.03,9161157.22,-0.1
507036.1,9161052.52,-0.1
507033.51,9161121.47,-0.1
507032.24,9161162.41,-0.2
507031.64,9161116.61,-0.2
507033.5,9161062.09,-0.2
507032,9161068.37,-0.2
507030.72,9161074.61,-0.2
507038.43,9160938.73,-0.3
507042.29,9161285.48,-0.3
507037.73,9161301.31,-0.3
507039.66,9161293.72,-0.5
507043.01,9160936.63,-2.9
507048.21,9160936,-4.5
507007.83,9156924.89,5.1
507011.62,9156919.73,4.2
507017.45,9156911.38,4.2
507021.8,9156904.45,4.1
507014.57,9156915.59,3.8
507025.17,9156899.17,3.7
507028,9156894.93,3.4
507011.14,9160941.49,2.1
507005.8,9160952.9,1.9
507009.04,9160946.19,1.8
507013.42,9160936.13,0.8
507029.27,9161203.79,0.5
507027.9,9161198.92,0.5
507027.29,9161193.57,0.4
507027.64,9161187.51,0.2
507029.64,9161178.5,0
507029.62,9161110.76,-0.2
507027.84,9161104.15,-0.2
507028.01,9161094.74,-0.3
507029.74,9161080.91,-0.3
507028.99,9161085.95,-0.4
507014.86,9160931.27,-0.6
507018.33,9160927.38,-3.2
506984.63,9156959.26,4.6
506998.49,9156937.32,4.5
507004.55,9156929.16,4.4
506981.53,9156963.67,4.2
506989.29,9156952.13,4.2
507001.44,9156933.27,4.2
506994.73,9156943.03,4
506991.94,9156947.73,3.7
506988.08,9161301.33,1.8
506986.09,9161310.56,1.7
506998.52,9161282.43,1.5
506990.75,9161296.41,1.5
507001.54,9161267.65,1.5
506993.75,9161291.18,1.5
507000.66,9161275.16,1.4
507003.83,9160957.58,1.4
507001.69,9161262.17,1.4
506999.63,9161241.95,1.3
506998.44,9161237.02,1.3
507000.53,9161246.89,1.3
507001.53,9161257.09,1.2
506997,9161232.09,1.1
507001.15,9161252.05,1.1
507002.02,9160962.38,1
506995.23,9161227.21,0.9
507000.28,9160968.15,0.8
506991.34,9161177.56,0.7
506993.44,9161222.49,0.6
506999.24,9160973.19,0.5
506997.79,9161148.54,0.5
506999.17,9160995.26,0.5
506997.36,9161154.99,0.5
506993.09,9161172.69,0.5
506996.31,9161160.53,0.5
506998.66,9160978.25,0.5
506998.34,9160983.58,0.4
506997.34,9161143.45,0.4
506990.04,9161182.46,0.4
506995.23,9161165.42,0.3
506991.95,9161217.58,0.3
506999.89,9161000.62,0.3
506998.59,9160989.93,0.3
507000.42,9161007.36,0.3
506989.7,9161206.67,0.2
506988.92,9161192.98,0.2
506988.89,9161198.39,0.2
506996.74,9161138.17,0.2
506990.61,9161211.78,0.2
506989.25,9161187.8,0.1
507000.49,9161012.61,0.1
507000.4,9161017.83,0.1
506996.12,9161132.8,0
507000.02,9161023.64,0
506995.47,9161123.7,-0.1
506995.07,9161063.62,-0.2
506999.28,9161028.99,-0.2
506994.21,9161087.41,-0.2
506995.92,9161053.4,-0.2
506995.15,9161118.54,-0.3
506994.26,9161092.75,-0.3
506997.73,9161038.54,-0.3
506996.49,9161047.68,-0.3
506994.27,9161097.87,-0.3
506994.37,9161077.36,-0.3
506995.51,9161058.53,-0.4
506994.61,9161110.3,-0.4
506994.63,9161071.12,-0.4
506994.35,9161102.9,-0.5
506989.03,9161316.81,-0.5
506992.84,9161320.13,-4
506962.23,9156984.78,4.2
506966.72,9156980.49,4.2
506976.24,9156970.49,4.1
506970.35,9156976.83,4
506958.6,9156988.29,3.9
506956.03,9160941.5,2.4
506956.68,9160947.88,2
506955.21,9160936.54,1.9
506957.01,9160952.96,1.7
506957.1,9160957.99,1.4
506956.92,9160963.21,1
506956.59,9160968.62,0.7
506956.07,9160973.61,0.5
506955.36,9160978.68,0.2
506958.89,9160912.87,-4.4
506947.63,9157001.1,5
506944.46,9157005.11,4.7
506941.35,9157009.12,4.6
506951.58,9156996.21,4.3
506936.75,9157015.32,4.3
506930.98,9157023.89,4.1
506933.8,9157019.61,3.8
506954.96,9156992.29,3.7
506951.98,9160925.44,2.1
506954.08,9160931.59,2
506946.91,9161262.03,1.9
506946.25,9161268.78,1.4
506946.6,9161195.6,1.3
506947.26,9161257.02,1.3
506947.38,9161200.65,1.3
506948.35,9161249.73,1.2
506949.75,9161239.4,1.2
506950.87,9161231.36,1.2
506945.09,9161275.44,1.2
506948.63,9161206.53,1.2
506940.39,9161291.48,1.2
506949.03,9161244.43,1.1
506937.62,9161295.71,1.1
506951.33,9161223.12,1
506943.95,9161280.33,1
506949.91,9161212.19,1
506950.85,9161217.15,1
506942.2,9161286.76,0.9
506945.74,9161187.97,0.7
506951.27,9160918.88,0.6
506945.3,9161182.83,0.5
506944.99,9161177.34,0.4
506944.63,9161153.12,0.4
506944.79,9161148.12,0.4
506945.41,9161142.72,0.4
506946.09,9161132.77,0.4
506944.52,9161166.38,0.3
506944.79,9161158.26,0.3
506944.6,9161171.43,0.3
506946.5,9161127.72,0.3
506954.62,9160983.67,0.1
506953.66,9160989.58,0.1
506950.14,9161005.11,0
506947.74,9161014.48,-0.1
506947.06,9161121.88,-0.1
506952.65,9160994.59,-0.1
506951.34,9161000.25,-0.1
506946.72,9161020.81,-0.2
506947.71,9161116.78,-0.2
506946.76,9161030.53,-0.2
506948.34,9161105.41,-0.2
506949.43,9161093.73,-0.3
506948.64,9161098.88,-0.3
506950.86,9161085.14,-0.3
506951.44,9161045.77,-0.3
506948.15,9161110.43,-0.3
506949.49,9161040.07,-0.4
506953.46,9161051.52,-0.4
506952.15,9161077.04,-0.4
506954.84,9161064.04,-0.4
506953.84,9161068.97,-0.5
506954.82,9161056.38,-0.5
506954.21,9160914.73,-1.1
506927.38,9157029.51,5
506908.74,9157061.35,4.8
506924.39,9157034.52,4.3
506911.68,9157057.27,4.2
506918.7,9157044.69,4.2
506921.1,9157040.12,4
506914.41,9157052.88,3.9
506908.88,9160925.49,2.3
506908.22,9160930.81,2.2
506909.08,9160920.13,2.2
506907.48,9160913.58,2
506907.47,9160940.16,1.8
506907.06,9160945.28,1.5
506906.55,9160951.63,1.4
506906.16,9160957.44,1.2
506905.7,9160962.85,0.9
506905.17,9160969.19,0.8
506905.37,9160908.95,-0.3
506904.76,9157066.08,5.2
506889.15,9157081.42,5.1
506898.01,9157072.96,4.6
506885.63,9157084.98,4.3
506894.24,9157076.49,4.2
506881.98,9157088.75,4.1
506892.87,9161261.89,2.6
506892.41,9161256.56,2.4
506892.86,9161267,2.1
506890.22,9161278.96,1.9
506891.97,9161251.54,1.9
506892.05,9161272.01,1.8
506890.26,9161284.1,1.8
506891.5,9161246.53,1.4
506890.99,9161241.53,1.1
506893.84,9161165.51,1
506890.57,9161236.41,1
506891.63,9161289.04,1
506890.46,9161231.3,0.9
506893.07,9161170.98,0.8
506890.9,9161224.1,0.8
506894.81,9161160.19,0.7
506892.65,9161188.51,0.7
506896.69,9161137.71,0.7
506892.55,9161183.48,0.7
506892.73,9161176.24,0.7
506891.64,9161218.76,0.7
506893.14,9161197.81,0.7
506896.47,9161142.85,0.6
506893.11,9161207.05,0.6
506895.44,9161155.13,0.6
506892.65,9161212.74,0.6
506904.68,9160974.82,0.5
506896,9161148.43,0.5
506896.67,9161132.53,0.4
506904.06,9160979.89,0.2
506896.56,9161127.27,0.1
506896.36,9161120.04,0
506903.33,9160985.46,0
506896.37,9161114.86,0
506896.4,9161106.35,-0.1
506902.92,9160990.94,-0.2
506896.32,9161099.36,-0.2
506902.08,9161000.14,-0.2
506901.62,9161006.9,-0.2
506896.32,9161094.27,-0.3
506901.66,9161012.44,-0.3
506896.59,9161087.41,-0.4
506901.9,9161017.47,-0.4
506903.57,9161039.16,-0.4
506896.89,9161081.79,-0.4
506902.55,9161025.29,-0.4
506899.94,9161065.7,-0.4
506903.28,9161034.1,-0.4
506901.61,9161060.38,-0.5
506897.34,9161076.73,-0.5
506898.41,9161070.93,-0.5
506903.7,9161048.82,-0.5
506902.9,9161055.37,-0.5
506894.16,9161293.48,-0.9
506898.27,9161296.48,-2.7
506873.89,9157098.3,5.1
506870.79,9157102.28,4.6
506867.81,9157106.47,4.4
506878.57,9157092.54,4.3
506860.17,9157117.98,4.2
506864.06,9157112.25,3.9
506857.16,9157122.2,3.8
506859.22,9160897.05,-1
506831.81,9157155.82,4.7
506836.45,9157150.06,4.6
506846,9157138.05,4.1
506850.99,9157130.93,4.1
506839.57,9157146.14,4
506842.77,9157142.15,3.8
506853.89,9157126.81,3.7
506853.09,9160915.42,2.7
506853.15,9160926.48,2.6
506853.52,9160920.47,2.3
506852.69,9160932.96,2
506849.32,9160907.43,1.8
506852.08,9160942.75,1.6
506845.51,9161177.18,1.5
506845.31,9161183.6,1.5
506845.81,9161172.05,1.4
506845.4,9161188.74,1.4
506851.84,9160947.79,1.2
506845.7,9161194.85,1
506845.45,9161264.83,1
506851.6,9160953.07,0.9
506851.54,9160958.68,0.9
506851.62,9160963.69,0.8
506845.93,9161200.7,0.7
506846.08,9161205.85,0.7
506848.6,9161254.46,0.7
506847.32,9161259.99,0.6
506849.34,9161248.7,0.6
506846.38,9161210.88,0.6
506846.22,9161167.01,0.5
506852.18,9160971.46,0.4
506847.03,9161217.16,0.4
506849.64,9161243.6,0.4
506849.87,9161110.77,0.4
506849.26,9161235.29,0.4
506847.8,9161222.14,0.3
506846.77,9161161.7,0.3
506847.52,9161156.49,0.3
506848.7,9161230.23,0.3
506849.64,9161120.07,0.2
506849.79,9161125.47,0.2
506848.82,9161146.97,0.2
506853.12,9160979.65,0.2
506849.76,9161131.31,0.1
506850.16,9161104.69,0.1
506849.48,9161139.91,0.1
506853.93,9160985.64,0
506850.44,9161099.19,-0.1
506854.58,9160990.7,-0.1
506850.72,9161094.17,-0.3
506854.95,9160995.69,-0.3
506851.22,9161089.09,-0.4
506852.13,9161083.79,-0.4
506853.6,9161075.9,-0.5
506854.27,9161006.67,-0.5
506854.49,9161068.65,-0.5
506854.28,9161054.98,-0.5
506854.9,9161000.71,-0.5
506854.7,9161062.04,-0.5
506853.4,9161015.83,-0.6
506853.55,9161048.7,-0.6
506852.65,9161031.73,-0.6
506852.7,9161037.32,-0.6
506853.03,9161043.47,-0.7
506852.97,9161023.68,-0.7
506853.7,9160898.76,-1.9
506849.72,9160901.89,-3.4
506828.57,9157159.73,5.1
506805.7,9157188.39,4.5
506808.79,9157183.37,4.5
506814.66,9157175.12,4.2
506825.14,9157163.39,3.8
506811.62,9157179.15,3.8
506819.88,9157169.03,3.7
506813.04,9160900.6,2.6
506812.35,9160893.9,2.5
506809.55,9160916.66,2.3
506811.25,9160911.15,2.2
506808.3,9160921.65,1.8
506807.37,9160926.61,1.7
506806.53,9160933.14,1.5
506812.55,9160906.31,1.3
506806.18,9160938.18,1.3
506806.39,9160946.94,1
506806.98,9160954.17,0.8
506807.87,9160960.25,0.6
506809.2,9160966.51,0.4
506810.4,9160972.73,0.2
506810.83,9160979.64,0.1
506810.33,9160989.11,-0.2
506808.72,9160998.75,-0.3
506811.04,9160888.91,-0.4
506806.96,9161006.42,-0.4
506805.31,9161014.79,-0.5
506803.08,9157193.02,5.2
506792.05,9157211.25,4.8
506784.03,9157222,4.7
506787.26,9157217.91,4.3
506795.33,9157206.34,4.3
506800.57,9157197.53,4.1
506798.04,9157201.95,3.9
506793.41,9161229.38,2.5
506792.86,9161234.78,2.5
506791.87,9161246.37,2.3
506791.22,9161251.6,2.2
506793.92,9161223.96,2.1
506792.32,9161241.07,2.1
506791.05,9161257.07,2
506794.24,9161218.9,1.8
506794.39,9161213.81,1.8
506794.29,9161208.28,1.6
506794.29,9161202.38,1.2
506794.11,9161197.34,1
506793.01,9161168.44,0.9
506792.65,9161173.5,0.8
506792.79,9161186.74,0.8
506793.51,9161192.08,0.8
506792.44,9161180.53,0.7
506793.9,9161162.91,0.7
506795.05,9161157.77,0.5
506796.1,9161152.35,0.5
506797,9161143.81,0.3
506797.32,9161138.68,0.2
506794.95,9161086.53,0.2
506794.6,9161102.79,0.2
506795.87,9161081.54,0.1
506796.25,9161114.86,0.1
506794.21,9161095.36,0.1
506797.35,9161133.28,0.1
506795.17,9161107.78,0.1
506797.05,9161126.36,0
506796.71,9161120.26,-0.1
506797.47,9161076.5,-0.1
506799.76,9161066.04,-0.2
506798.81,9161071.07,-0.3
506801.32,9161054.96,-0.3
506800.56,9161060.73,-0.3
506792.12,9161261.96,-0.4
506802.64,9161033.63,-0.5
506802.01,9161041.17,-0.5
506801.65,9161049.9,-0.5
506803.28,9161028.28,-0.6
506804.38,9161020.53,-0.7
506794.42,9161266.52,-2.8
506798.61,9161269.42,-4.3
506758.69,9157254.8,5
506776.67,9157230.73,4.8
506764.49,9157246.62,4.7
506761.57,9157250.71,4.5
506772.9,9157235.29,4.4
506780.04,9157226.85,4.3
506769.8,9157239.27,4.2
506755.84,9160888.42,2.1
506756.89,9160904.24,1.8
506756.67,9160910.26,1.8
506756.69,9160916.05,1.7
506756.73,9160921.49,1.5
506756.91,9160926.51,1.2
506757.19,9160895.68,1
506757.97,9160938.83,1
506757.58,9160933.64,0.9
506758.15,9160943.9,0.8
506755.28,9160875.14,0.7
506758.44,9160948.95,0.6
506758.75,9160955.41,0.3
506758.86,9160960.48,0.2
506755.39,9161080.79,0.1
506758.41,9160966.67,0.1
506757.14,9160973.37,0
506756.02,9161075.74,0
506757.05,9161065.09,-0.3
506756.48,9161070.65,-0.3
506757.52,9161059.63,-0.4
506758.15,9161044.71,-0.4
506758.08,9161050.71,-0.4
506757.93,9161028.3,-0.5
506757.96,9161036.38,-0.5
506756.67,9161018.28,-0.5
506757.58,9161023.21,-0.6
506760.67,9160873.05,-1
506745.17,9157275.88,6.4
506734.36,9157293.28,6.3
506737.15,9157289.08,5.5
506731.46,9157297.6,5.4
506742.56,9157280.32,5.3
506747.82,9157271.43,5.2
506739.91,9157284.72,5.1
506753.56,9157262.12,5
506750.51,9157267.02,4.8
506747.94,9161220.26,2.7
506746.57,9161229,2.6
506748.43,9161215.01,2.5
506745.26,9161233.92,2.2
506748.85,9161208.35,2
506751.75,9160880.8,1.9
506743.53,9161238.71,1.8
506741.09,9161243.28,1.6
506748.86,9161203.25,1.6
506738.03,9161247.62,1.4
506749.57,9161160.62,1.2
506749.67,9161150.57,1.2
506749.11,9161166.37,1.2
506749.67,9161134.73,1.2
506749.47,9161142.92,1.2
506749.68,9161155.59,1.2
506749.84,9161129.72,1.2
506749.97,9161124.54,1.1
506748.59,9161198.12,1.1
506748.84,9161173.45,1.1
506748.45,9161181.32,1.1
506748.27,9161186.83,1
506748.35,9161192.77,1
506750.9,9161111.97,0.7
506750.22,9161119.37,0.7
506751.6,9161106.72,0.6
506753.99,9161091.64,0.5
506752.59,9161101.81,0.5
506753.32,9161096.72,0.5
506754.68,9161086.42,0.5
506754.86,9160982.71,-0.3
506752.34,9160991.19,-0.3
506751.6,9160996.67,-0.6
506751.66,9161001.79,-0.6
506753.41,9161009.65,-0.7
506705.87,9157344.24,6.3
506720.69,9157314.64,5.9
506718.17,9157319.04,5.7
506725.88,9157306.17,5.4
506709.83,9157336.43,5.3
506714.16,9157327.27,5.2
506728.61,9157301.94,5.1
506712.04,9157331.88,5
506709.61,9160877.03,1.9
506713.11,9160909.83,1.7
506712.3,9160891.78,1.7
506711.35,9160883.6,1.6
506712.97,9160902.21,1.6
506712.67,9160896.86,1.5
506712.99,9160914.88,1.4
506712.66,9160919.92,1.3
506706.84,9160869.96,1.2
506712.31,9160925.03,1
506711.95,9160930.27,0.8
506711.31,9160935.28,0.6
506710.24,9160942.03,0.4
506709.48,9160947.01,0.2
506707.89,9160955.46,0
506707.12,9160960.96,-0.2
506706.54,9160967.16,-0.3
506706.32,9160975.68,-0.5
506706.93,9161005.26,-0.5
506705.19,9161018.76,-0.5
506707.14,9161000.07,-0.6
506705.93,9161013.69,-0.6
506706.45,9160981.24,-0.7
506706.79,9160987.87,-0.7
506707.15,9160993.43,-0.7
506695.81,9157364.48,6.2
506698.06,9157359.84,5.8
506693.54,9157369.11,5.7
506703.36,9157349.2,5.7
506690.78,9157374.83,5.6
506682.97,9157391.07,5.6
506686.33,9157383.91,5.5
506700.57,9157354.84,5.4
506688.55,9157379.35,5.2
506680.76,9157395.72,4.9
506694.57,9161172.52,1.4
506690.59,9161189.76,1.4
506690.1,9161199.41,1.3
506692.31,9161182.58,1.3
506693.7,9161177.58,1.3
506694.98,9161167.03,1.2
506704.24,9160865.6,1.1
506695,9161161.76,1
506690.32,9161204.52,0.9
506695,9161156.39,0.9
506694.98,9161149.32,0.8
506695.1,9161143.69,0.7
506694.81,9161130.61,0.7
506695.19,9161138.46,0.6
506690.87,9161215.44,0.6
506690.65,9161209.58,0.6
506688.26,9161231.18,0.6
506690.19,9161221.9,0.5
506694.59,9161125.61,0.4
506688.36,9161236.27,0.4
506694.99,9161096.68,0.3
506694.91,9161102.92,0.2
506694.42,9161120.59,0.2
506695.33,9161090.32,0.1
506694.57,9161114.99,0.1
506694.72,9161109.22,0.1
506695.66,9161085.23,0
506696.03,9161080.19,-0.1
506696.47,9161074.26,-0.2
506697.22,9161067.79,-0.3
506697.75,9161062.79,-0.4
506703.01,9161030.3,-0.5
506704,9161025.34,-0.5
506698.41,9161057.27,-0.5
506700.67,9161041.66,-0.6
506701.87,9161035.75,-0.6
506699.74,9161047.87,-0.7
506690.77,9161243.32,-1.1
506694.29,9161246.89,-2.8
506699.07,9161248.73,-3.4
506663.12,9157431.87,6.3
506665.58,9157426.28,6.2
506675.45,9157406.77,6
506660.99,9157436.44,5.7
506670.31,9157416.5,5.6
506658.74,9157440.92,5.5
506678.43,9157400.68,5.5
506667.72,9157421.71,5.3
506672.95,9157411.46,5.3
506662.5,9160861.61,2
506664.23,9160866.37,1.9
506666.52,9160875.46,1.5
506666.15,9160886.81,1.4
506666.59,9160880.51,1.4
506665.62,9160891.8,1.2
506660.58,9160917.64,1.1
506664.94,9160897.59,1
506661.93,9160912.76,1
506664.03,9160902.61,0.9
506663.12,9160907.67,0.9
506659.18,9160922.6,0.9
506658.04,9160927.99,0.8
506661.04,9160852.81,0.8
506657.31,9160933.03,0.5
506656.95,9160938.04,0.3
506656.7,9160943.2,0.1
506656.25,9160953.65,-0.2
506656.43,9160948.51,-0.2
506655.81,9160958.91,-0.3
506664.5,9160849.18,-1.7
506648.14,9157461.37,6.3
506638.29,9157481.18,6.2
506650.39,9157456.66,6.1
506654.3,9157449.29,6.1
506631.3,9157495.05,5.9
506645.86,9157466.36,5.8
506643.05,9157472.12,5.7
506635.84,9157485.93,5.6
506633.55,9157490.5,5.5
506640.64,9157476.72,5.3
506647.77,9161181.42,1.6
506647.48,9161186.54,1.5
506647.15,9161192.2,1.4
506648.09,9161174.55,1.3
506639.23,9161232.81,1.2
506646.86,9161197.72,1.1
506648.43,9161168.19,0.9
506649.12,9161151.06,0.9
506646.59,9161202.83,0.8
506648.63,9161157.86,0.7
506652.11,9161115.62,0.7
506650.3,9161141.71,0.7
506651.72,9161110.56,0.6
506648.48,9161163.1,0.6
506652.25,9161120.64,0.6
506651,9161136.71,0.5
506651.07,9161105.48,0.4
506643.29,9161226.02,0.4
506652.23,9161126.11,0.4
506646.13,9161207.87,0.3
506651.7,9161131.35,0.3
506650.07,9161100.13,0.2
506644.38,9161221.14,0.2
506645.62,9161213.24,0.2
506649,9161095.2,0.1
506647.02,9161083.18,0
506646.87,9161077.57,0
506647.62,9161088.17,0
506647.08,9161072.33,-0.1
506647.52,9161066.69,-0.1
506647.88,9161061.03,-0.3
506648.15,9161055.98,-0.4
506654.69,9160966.83,-0.4
506648.59,9161050.98,-0.5
506648.85,9161041.77,-0.5
506652.88,9160977.94,-0.6
506649.01,9161031.82,-0.6
506649.46,9161024.65,-0.6
506653.68,9160972.34,-0.6
506649.8,9161019.64,-0.7
506650.42,9161013.07,-0.7
506652.33,9160985.53,-0.7
506651.28,9161006.16,-0.8
506651.96,9160995.03,-0.8
506651.75,9161000.81,-0.8
506628.54,9157500.96,6.3
506620.81,9157518.51,5.8
506609.23,9157543.37,5.8
506624.41,9157510.29,5.6
506613.99,9157533.92,5.6
506616.36,9157528.52,5.5
506626.46,9157505.6,5.5
506611.65,9157538.75,5.4
506618.51,9157523.68,5.2
506614.93,9160848.45,2.1
506614.69,9160855.82,1.9
506612.39,9160873.9,1.6
506611.71,9160881.72,1.6
506614.09,9160860.95,1.4
506611.39,9160888.19,1.4
506613.04,9160868.88,1.3
506611.2,9160895.03,1.1
506614.2,9160843.16,0.9
506611.16,9160900.11,0.8
506611.02,9160905.19,0.6
506610.35,9160913.23,0.6
506608.08,9160928.02,0.4
506609.31,9160920.17,0.4
506607.32,9160933.21,0.1
506606.58,9160940.02,-0.1
506606.12,9160945.55,-0.3
506605.78,9160951.26,-0.5
506605.49,9160957.83,-0.5
506605.25,9160962.99,-0.7
506605.14,9160969.84,-0.7
506589.65,9157576.63,6.4
506585.8,9157584.57,6.3
506604.55,9157550.93,6.1
506600.18,9157557.45,6
506583.57,9157589.67,6
506581.8,9157594.37,6
506593.04,9157569.87,6
506595.47,9157565.34,5.8
506596.38,9161134.94,1.4
506596.67,9161143.16,1.3
506595.95,9161129.88,1.3
506596.84,9161148.4,1.2
506592.41,9161211.18,1.2
506595.48,9161124.85,1.1
506596.71,9161153.63,1.1
506595.15,9161119.11,1
506596.4,9161158.94,0.9
506598,9161094.91,0.9
506593.49,9161230.32,0.9
506594.91,9161114.03,0.9
506596.43,9161100.82,0.8
506591.72,9161216.33,0.8
506598.98,9161089.91,0.8
506595.09,9161107.56,0.8
506596.01,9161165.85,0.8
506595.71,9161171.35,0.7
506591.37,9161221.86,0.7
506595.25,9161178.98,0.7
506592.99,9161205.87,0.7
506594.82,9161185.47,0.7
506594.3,9161190.5,0.6
506599.95,9161083.74,0.5
506593.79,9161195.5,0.4
506600.38,9161078.73,0.3
506593.39,9161200.79,0.3
506600.03,9161073.41,0.1
506599.3,9161066.01,-0.1
506598.43,9161059.16,-0.1
506598.21,9161053.99,-0.2
506598.83,9161042.56,-0.2
506600.29,9161036.72,-0.2
506598.16,9161048.9,-0.2
506601.84,9161030.98,-0.3
506602.9,9161025.89,-0.6
506603.94,9161019.28,-0.8
506605.01,9160986.12,-0.8
506605.02,9160976.33,-0.8
506604.62,9161010.58,-0.8
506604.98,9160992.82,-0.8
506604.84,9161002.62,-0.9
506596.15,9161234.59,-1.7
506600.51,9161237.24,-4.2
506579.93,9157599.05,6.4
506555.95,9157657.82,6
506561.43,9157643.19,6
506558.59,9157650.87,5.8
506563.75,9157637.58,5.6
506566.03,9157632.52,5.3
506577.5,9157604.99,5
506568.35,9157627.46,4.8
506570.74,9157621.64,4.4
506573.63,9157614.48,4
506575.58,9157609.7,3.5
506563.94,9160838.58,2.1
506563.55,9160846.46,2
506566.51,9160852.16,1.9
506568.02,9160858.79,1.7
506559.98,9160882.45,1.3
506564.15,9160875.35,1.2
506566.57,9160869.95,1.1
506557.46,9160886.95,1.1
506567.81,9160863.83,1.1
506538.36,9157700.06,7
506544.08,9157687.19,6.9
506533.99,9157709.29,6.9
506531.7,9157713.96,6.8
506540.91,9157694.49,6.8
506549.19,9157674.77,6.6
506552.27,9157667.19,6.4
506547.25,9157679.58,6.4
506554.12,9157662.53,6.3
506536.19,9157704.68,6.3
506550.36,9161112.43,1.2
506549.53,9161144.73,1.2
506549.9,9161117.88,1.1
506549.52,9161135.39,1.1
506549.44,9161151.12,1.1
506549.52,9161122.97,1.1
506549.37,9161130.28,1
506549.22,9161156.3,1
506548.87,9161161.68,0.8
506549.45,9161195.26,0.7
506549.19,9161201.05,0.7
506541.06,9161226.16,0.7
506554.97,9160892.65,0.7
506543.75,9161221.92,0.6
506552.92,9160898.28,0.6
506551.3,9161102.47,0.6
506548.7,9161166.91,0.5
506549.31,9161190,0.5
506548.44,9161206.64,0.5
506551.33,9160903.7,0.5
506553.16,9161083.4,0.5
506552,9161097.18,0.5
506552.88,9161088.53,0.4
506553.21,9161074.85,0.4
506548.68,9161171.92,0.3
506553.13,9161068.08,0.3
506547.38,9161212.05,0.3
506549.02,9161184.64,0.3
506545.79,9161217.08,0.3
506548.65,9161178.37,0.2
506550.14,9160908.66,0.2
506553.1,9161062.89,0.1
506553.82,9161033.94,0.1
506552.99,9161057.39,0
506553.29,9161045.3,0
506549.47,9160915.47,0
506553.57,9161039.1,-0.1
506553.9,9161028.84,-0.1
506553.15,9161051.36,-0.1
506550.12,9160923.08,-0.2
506551.29,9160930.58,-0.2
506553.58,9161019.91,-0.3
506553.34,9161014.67,-0.3
506551.99,9160935.91,-0.4
506552.83,9160941.66,-0.4
506553.46,9161008.78,-0.6
506553.64,9160950.46,-0.6
506553.72,9160956.24,-0.6
506554.08,9160986.12,-0.6
506553.83,9160999.24,-0.6
506554.15,9160980.91,-0.7
506554,9160992.69,-0.7
506553.83,9160962.06,-0.7
506554.02,9160968.54,-0.8
506554.1,9160975.78,-0.8
506507.32,9157772.18,7.1
506520.96,9157738.8,7
506510.75,9157764.91,6.9
506518.43,9157745.7,6.9
506515.36,9157753.71,6.8
506524.92,9157728.4,6.8
506522.77,9157733.93,6.6
506528.64,9157720.09,6.5
506512.75,9157760.16,6.2
506517.28,9160837,1.7
506516.15,9160829.61,1.7
506514.56,9160862.8,1.5
506516.06,9160853.61,1.4
506513.66,9160867.96,1.4
506512.27,9160875.95,1.3
506517.06,9160847.26,1.2
506517.5,9160842.1,1.1
506514.87,9160824.69,1
506511.4,9160880.94,1
506510.53,9160886.09,0.9
506509.69,9160891.54,0.7
506509.04,9160896.66,0.7
506508.33,9160903.24,0.6
506507.91,9160908.92,0.3
506507.55,9160913.91,0
506507.21,9160919.78,-0.1
506507.02,9160924.83,-0.2
506506.73,9160930.72,-0.5
506506.18,9160939.21,-0.6
506505.84,9160945.31,-0.6
506505.43,9160952.25,-0.6
506512.8,9160820.1,-1.2
506480.46,9157836.11,8
506496.59,9157794.57,7.8
506488.18,9157813.44,7.6
506481.78,9157831.21,7.4
506485.22,9157820.85,7.3
506483.3,9157826.27,7
506490.23,9157808.7,7
506494.39,9157799.39,6.8
506492.3,9157804,6.7
506498.73,9157790,6.7
506504.88,9157777.09,6.6
506502.21,9157782.61,6.5
506500.31,9161104.02,1.6
506500.05,9161093.96,1.6
506499.93,9161109.08,1.5
506499.42,9161114.08,1.4
506497.74,9161125.82,1.4
506498.61,9161119.79,1.4
506497.24,9161133.76,1.3
506499.89,9161088.88,1.3
506497.09,9161139.73,1.2
506497.11,9161145.01,1
506499.9,9161083.78,0.9
506496.86,9161150.28,0.8
506490.78,9161184.44,0.7
506501.42,9161049.55,0.7
506502.17,9161042.37,0.6
506491.77,9161178.36,0.6
506499.79,9161077.75,0.6
506495.52,9161160.54,0.6
506490.2,9161189.83,0.6
506500.89,9161054.53,0.6
506499.57,9161071.12,0.6
506496.33,9161155.37,0.5
506500.32,9161061.54,0.5
506492.92,9161173.38,0.5
506489.44,9161216.56,0.5
506489.95,9161197.31,0.4
506494.14,9161168.05,0.4
506502.18,9161037.3,0.4
506489.64,9161202.54,0.2
506502.07,9161032.27,0.2
506489.13,9161210.26,0.1
506501.83,9161027.24,-0.2
506501.6,9161022.14,-0.3
506501.4,9161016.64,-0.5
506502.14,9160975.97,-0.5
506492.52,9161223.64,-0.5
506501.21,9161009.93,-0.6
506504.07,9160962.29,-0.6
506502.88,9160970.95,-0.6
506501.02,9160990.09,-0.6
506501.55,9160981.06,-0.6
506501.13,9161004.24,-0.7
506500.96,9160995.35,-0.7
506496.84,9161226.25,-1.1
506475.15,9157854,8.9
506477.59,9157846.82,8.8
506463.65,9157887.24,8.4
506478.98,9157841.92,8.1
506466.23,9157879.22,8
506473.32,9157858.97,7.8
506462.02,9157892.39,7.8
506456.77,9157908.32,7.7
506460.36,9157897.9,7.5
506467.92,9157874.33,7.4
506471.64,9157863.7,7.1
506469.55,9157869.59,7
506458.74,9157902.8,7
506455.73,9160833.78,1.4
506456.44,9160810.41,1.4
506457.21,9160856.28,1.3
506457.07,9160846.11,1.2
506457.83,9160863.98,1.2
506456.94,9160840.96,1
506458.29,9160869.42,1
506457.09,9160851.12,1
506458.43,9160874.47,0.8
506458.31,9160880.05,0.7
506457.74,9160889.41,0.5
506457.16,9160894.44,0.4
506456.54,9160901.43,0.3
506456.3,9160906.67,0.1
506456.35,9160911.96,-0.1
506456.68,9160917.03,-0.2
506457,9160923.26,-0.3
506457.42,9160929.29,-0.4
506455.23,9160969.3,-0.7
506457.59,9160934.4,-0.7
506457.7,9160939.59,-0.7
506457.56,9160944.87,-0.7
506457.27,9160951.73,-0.8
506456.37,9160961.66,-0.9
506460.99,9160808.07,-1
506465.94,9160807.24,-2.2
506435.06,9157960.29,8.4
506430.25,9157973.6,8.3
506431.89,9157968.85,8.2
506449.87,9157924.8,8
506452.83,9157917.81,8
506440.84,9157945.89,7.8
506436.91,9157955.59,7.7
506447.86,9157929.38,7.7
506454.79,9157913.17,7.5
506443.34,9157939.79,7.5
506438.86,9157950.79,7.5
506445.3,9157935.08,7
506450.17,9161110.45,1.8
506452.66,9160821.48,1.7
506452.73,9160815.28,1.7
506450,9161115.67,1.6
506453.66,9160826.48,1.4
506449.8,9161120.99,1.3
506446.12,9161170.98,1.3
506448.96,9161143.74,1.2
506447.18,9161161.47,1.2
506445.79,9161181.98,1.2
506445.83,9161187.17,1.2
506449.32,9161137.18,1.2
506448.34,9161149.88,1.1
506447.69,9161155.55,1.1
506445.72,9161176.76,1.1
506449.5,9161126.65,1.1
506445.96,9161192.95,0.9
506449.39,9161131.86,0.9
506450.28,9161103.52,0.8
506450.36,9161098.52,0.7
506450.38,9161093.13,0.6
506446.17,9161197.95,0.6
506450.92,9161047.75,0.6
506450.89,9161055.3,0.6
506450.47,9161085.32,0.5
506450.79,9161064.45,0.5
506450.62,9161077.21,0.4
506450.76,9161070.35,0.4
506446.04,9161203.29,0.4
506450.95,9161042.31,0.3
506452.23,9161006.4,0
506451.88,9161017.21,0
506451.1,9161037.26,0
506451.6,9161023.15,0
506451.27,9161032.11,0
506451.99,9161012.13,-0.1
506445.26,9161208.5,-0.1
506452.54,9160999.47,-0.1
506452.87,9160992.88,-0.2
506453.24,9160987.77,-0.3
506453.96,9160980.84,-0.4
506454.49,9160975.77,-0.5
506442.87,9161213.59,-0.8
506422.3,9157997.56,9
506424.28,9157991.81,8.7
506427.83,9157981.07,8.4
506425.92,9157986.85,8.3
506413.29,9158022.28,8.2
506415.15,9158017.41,7.8
506420.52,9158002.55,7.8
506418.72,9158007.61,7.5
506410.89,9158028.54,7.4
506416.89,9158012.58,7.3
506408.65,9158034.14,7.2
506415.05,9160810.98,1.8
506414.67,9160805.98,1.5
506413.91,9160831.4,1.1
506413.34,9160836.91,1
506411.35,9160864.08,0.8
506415.23,9160816.11,0.8
506412.11,9160855.17,0.7
506414.41,9160826.32,0.7
506409.79,9160877.57,0.7
506412.41,9160849.93,0.6
506410.75,9160870.06,0.6
506412.82,9160842.72,0.6
506414.88,9160821.19,0.5
506409,9160886.4,0.4
506408.73,9160891.48,0.2
506408.5,9160896.48,0
506408.28,9160902.93,-0.1
506408.12,9160910.45,-0.3
506408,9160916.21,-0.3
506407.84,9160921.24,-0.4
506407.55,9160927.74,-0.5
506405.11,9160954.1,-0.5
506407.52,9160934.03,-0.5
506406.52,9160946.22,-0.6
506407.13,9160940.89,-0.6
506388.12,9158085.39,8.5
506390.35,9158080.74,7.7
506404.73,9158043.51,7.6
506399.61,9158057.85,7.6
506385.59,9158090.26,7.6
506380.36,9158099.58,7.5
506402.87,9158048.17,7.4
506382.89,9158095.13,7.4
506401.21,9158052.93,7.2
506392.46,9158076.16,6.8
506397.01,9158065.32,6.8
506394.46,9158071.56,6.6
506401.39,9161082.86,1.8
506401.9,9161088.8,1.5
506399.12,9161049.89,1.4
506399.17,9161044.11,1.4
506400.86,9161076.54,1.3
506399.41,9161055.14,1.3
506400.62,9161071.42,1.1
506399.92,9161061.1,1.1
506400.32,9161066.11,1
506402.29,9161093.83,0.9
506399.05,9161144.14,0.9
506399.41,9161039.03,0.8
506401.6,9161112.85,0.8
506402.71,9161098.9,0.7
506399.54,9161150.3,0.7
506398.8,9161122.17,0.6
506398.03,9161137.76,0.6
506400.11,9161033.95,0.6
506402.79,9161104.44,0.5
506397.19,9161130.38,0.5
506401.06,9161028.79,0.4
506398.51,9161155.22,0.2
506402.02,9161023.82,0.2
506397.26,9161160.15,0.2
506403.51,9161002.51,0.2
506402.29,9161192.18,0.1
506396.45,9161165.23,0.1
506403.4,9160997.11,0.1
506403.44,9161007.63,0.1
506402.81,9161017.49,0.1
506403.16,9160991.42,0.1
506397.38,9161179.68,0
506399.15,9161184.5,0
506396.18,9161171.88,0
506395.36,9161202.07,-0.1
506402.82,9160985.79,-0.1
506402.28,9160980.66,-0.2
506400.22,9161199.07,-0.2
506401.83,9160972.71,-0.3
506403.96,9160959.16,-0.4
506402.89,9160964.24,-0.4
506394.14,9161207.63,-0.6
506398.82,9161213.43,-0.8
506363.73,9158135.51,8.1
506377.79,9158104.02,7.7
506365.82,9158129.36,7.6
506356.51,9158160.67,7.6
506362.59,9158140.51,7.5
506373.99,9158111.33,7.3
506358.22,9158155.82,7.3
506361.34,9158145.7,7.1
506359.79,9158151.01,7
506370.04,9158119.88,6.5
506367.8,9158124.74,6.3
506360.7,9160815.12,0.9
506360.32,9160832.85,0.9
506355.53,9160788.59,0.8
506360.53,9160827.79,0.8
506359.85,9160839.87,0.7
506360.68,9160822.77,0.7
506356.61,9160795.78,0.7
506359.23,9160805.61,0.6
506359.39,9160845.14,0.6
506357.97,9160800.69,0.4
506358.6,9160852.76,0.4
506356.62,9160869.43,0.2
506357.69,9160859.48,0.2
506356.17,9160876.46,0
506355.82,9160881.83,-0.2
506355.52,9160887.41,-0.3
506360.38,9160782.91,-0.7
506365.34,9160782.04,-2.9
506335.58,9158204.72,8.4
506354.34,9158166.41,7.8
506337.66,9158200.05,7.6
506346.14,9158183.22,7.5
506350.04,9158175.59,7.3
506332.54,9158212.19,7.2
506352.25,9158171.07,7.2
506339.79,9158195.38,7.1
506342.11,9158190.78,7
506330.77,9158217.19,7
506348.06,9161036.65,1.3
506349.76,9161014.44,1.2
506350.04,9161008.19,1.2
506346.59,9161058.89,1.2
506349.32,9161021.19,1.2
506350.21,9161002.29,1.2
506347.49,9161042.01,1.2
506350.33,9160995.98,1.1
506347.34,9161074.85,1.1
506351.21,9161118.13,1.1
506349.01,9161026.31,1
506350.44,9160988.23,1
506348.45,9161084.11,1
506347.1,9161047.26,1
506350.36,9160981.63,1
506348.65,9161031.31,0.9
506350.73,9161111.36,0.9
506346.84,9161052.28,0.8
506346.95,9161069.74,0.8
506349.6,9160966.43,0.8
506346.65,9161063.98,0.8
506350.21,9160976.43,0.8
506350.26,9161106.37,0.8
506349.2,9161089.47,0.6
506349.85,9161101.2,0.6
506349.54,9161094.6,0.5
506348.58,9161167.99,0.5
506351.44,9161123.14,0.4
506349.08,9160961.39,0.4
506349.7,9161161.26,0.4
506351.29,9161150.57,0.4
506350.59,9161155.9,0.4
506351.8,9161134.02,0.4
506351.73,9161144.69,0.4
506351.57,9161128.26,0.3
506351.92,9161139.44,0.3
506347.56,9161173,0.2
506348.34,9160956.1,0.1
506348.03,9160950.63,0
506346.77,9161177.94,-0.1
506348.15,9160945.58,-0.3
506354.99,9160897.27,-0.3
506345.92,9161187.92,-0.4
506348.72,9160938.75,-0.5
506354.39,9160902.28,-0.5
506353.44,9160908.71,-0.5
506345.15,9161192.96,-0.6
506349.3,9160932.81,-0.6
506351.34,9160919.25,-0.6
506350.43,9160924.17,-0.7
506352.51,9160913.68,-0.7
506344.16,9161198.11,-1.3
506341.07,9161204.94,-1.3
506306.48,9158295.94,9.1
506308.66,9158289.17,9.1
506314.01,9158271.82,8.9
506312.03,9158278.42,8.6
506310.22,9158284.28,8.6
506321.83,9158245.94,8.3
506320.36,9158250.8,8.3
506315.54,9158266.97,8.2
506324.44,9158237.42,7.9
506318.95,9158255.69,7.8
506317.1,9158261.98,7.7
506325.87,9158232.57,7.5
506327.37,9158227.66,7.1
506328.93,9158222.86,6.9
506312.11,9160782.49,1.2
506308.99,9160775.45,0.9
506313.26,9160788.42,0.9
506305.56,9160964.48,0.8
506307.69,9160941.22,0.7
506315.29,9160818.05,0.7
506306.76,9160951.83,0.7
506308.74,9160934.26,0.7
506314.19,9160795.26,0.7
506307.06,9160946.63,0.7
506306.17,9160958.77,0.6
506315.04,9160802.48,0.6
506314.73,9160825.17,0.6
506315.3,9160807.6,0.5
506309.5,9160929.03,0.5
506315.37,9160812.93,0.5
506312.32,9160843.39,0.3
506310.16,9160923.32,0.3
506313.31,9160837.94,0.2
506314.28,9160830.28,0.2
506311.39,9160849,0.1
506309.94,9160859.96,0.1
506309.49,9160865.46,0.1
506310.56,9160854.04,0.1
506310.57,9160918.23,-0.1
506309.18,9160870.49,-0.1
506310.91,9160912.45,-0.4
506309.2,9160877.53,-0.4
506309.29,9160883.12,-0.5
506310.99,9160906.34,-0.6
506309.69,9160890.87,-0.6
506310.14,9160896.24,-0.6
506310.63,9160901.32,-0.6
506288.51,9158343.92,9.8
506280.25,9158362.7,9.7
506300.26,9158315.35,9.6
506291.16,9158338.32,9.5
506286.35,9158348.51,9.3
506282.22,9158358.04,9.3
506284.29,9158353.14,9.1
506293.22,9158333.72,9
506304.91,9158301.03,8.9
506297.19,9158323.96,8.8
506301.87,9158310.61,8.7
506295.25,9158328.96,8.6
506303.38,9158305.82,8.1
506300,9161079.01,1.4
506297.36,9161055.29,1.2
506299.34,9161073.21,1.1
506297.77,9161062.83,1
506297.62,9161050.2,0.9
506298.46,9161068.22,0.9
506303.6,9160978.45,0.8
506302.58,9160984.06,0.8
506299.63,9161114.53,0.8
506301.98,9160989.29,0.8
506304.68,9160970.67,0.8
506301.46,9161001.9,0.7
506300.31,9161105.86,0.7
506301.51,9160995.33,0.7
506298.47,9161045.1,0.6
506300.72,9161088.48,0.6
506301.62,9161006.94,0.6
506300.56,9161100.27,0.5
506299.78,9161040.27,0.5
506298.84,9161119.56,0.5
506302.11,9161014.18,0.5
506301.34,9161033.7,0.4
506302.54,9161020.2,0.4
506302.34,9161025.67,0.3
506300.78,9161093.55,0.3
506297.31,9161125.32,0.3
506294.56,9161135.62,0.2
506293.43,9161140.58,0.1
506295.79,9161130.72,0.1
506291.23,9161152.21,0
506292.4,9161145.49,-0.1
506290.82,9161157.24,-0.1
506291,9161162.27,-0.3
506291.7,9161167.3,-0.6
506292.12,9161172.93,-0.7
506292.29,9161178.29,-0.9
506291.91,9161185.02,-1.1
506291.5,9161190.3,-1.4
506291.33,9161195.3,-1.5
506290.96,9161201.17,-1.9
506291.64,9161206.24,-3.1
506296.76,9161210.47,-4
506265.45,9158403.9,10.1
506277.31,9158370.08,10.1
506272.91,9158381.61,9.9
506270.8,9158387.44,9.7
506275.01,9158375.97,9.6
506267.52,9158397.08,9.3
506263.85,9158409.18,9.2
506269.09,9158392.28,8.9
506262.22,9158414.16,8.5
506256.5,9158429.8,8.2
506260.03,9158420.33,8.1
506258.3,9158425.07,7.9
506262.09,9160776.75,1.5
506261.68,9160801.08,1.2
506261.91,9160795.5,1.2
506262.26,9160788.55,1.2
506261.14,9160770.38,1.1
506260.55,9160813.09,1.1
506261.33,9160806.09,1.1
506260.93,9160764.85,1
506262.19,9160781.88,0.9
506259.91,9160818.13,0.8
506258.6,9160825.27,0.5
506255.21,9160890.41,0.4
506256.6,9160840.64,0.3
506257.71,9160830.29,0.3
506257.07,9160835.61,0.3
506256.36,9160878.3,0.2
506256.14,9160850.1,0.1
506255.83,9160885.17,0
506256.26,9160856.12,-0.2
506256.54,9160873.28,-0.2
506256.47,9160861.14,-0.3
506256.58,9160867.34,-0.3
506264.05,9160760.88,-1.9
506268.84,9160759.38,-4.6
506232.43,9158488.47,9.6
506236.47,9158479.58,9.3
506248.89,9158450.28,9.3
506244.79,9158460.32,9.1
506254.69,9158434.54,9.1
506250.91,9158444.44,9
506246.98,9158455.21,9
506252.74,9158439.59,8.8
506230.31,9158493.49,8.8
506238.64,9158474.58,8.4
506242.69,9158464.97,7.8
506240.62,9158469.79,7.5
506249.4,9161061.13,1.5
506249.04,9161066.32,1.4
506249.7,9161054.38,1.2
506248.58,9161074.19,1.1
506252.18,9160968.17,0.9
506252.01,9160974.03,0.9
506252.1,9160979.45,0.9
506249.75,9161049.33,0.9
506251.54,9161026.32,0.9
506250.89,9161031.94,0.9
506254.25,9160911.25,0.8
506250.01,9161044.25,0.8
506248.47,9161079.25,0.8
506253.1,9160958.94,0.8
506252.44,9160984.46,0.8
506250.38,9161037.35,0.8
506254.17,9160916.48,0.7
506254.03,9160923.76,0.7
506254.37,9160898.74,0.7
506252.93,9160990.56,0.7
506254.28,9160903.92,0.7
506253.33,9160995.67,0.7
506253.72,9160953.88,0.6
506252.12,9161021.3,0.6
506253.48,9161001.06,0.6
506254.26,9160946.2,0.6
506254,9160932.14,0.5
506254.27,9160937.74,0.5
506253.41,9161006.1,0.5
506252.69,9161016.29,0.4
506248.19,9161084.3,0.4
506246.98,9161100.71,0.4
506253.11,9161011.25,0.4
506247.34,9161095.06,0.3
506247.81,9161089.52,0.3
506246.99,9161108.7,-0.1
506247.57,9161131.04,-0.2
506247.16,9161113.94,-0.3
506247.41,9161125.68,-0.3
506247.27,9161120.61,-0.4
506247.41,9161140.74,-0.5
506247.23,9161145.74,-1
506247.17,9161151.47,-1.1
506247.16,9161156.49,-1.4
506247.36,9161164.07,-1.6
506247.38,9161169.19,-1.6
506248.47,9161185.48,-1.7
506248.72,9161192.37,-1.7
506247.56,9161174.31,-1.7
506247.97,9161179.93,-1.8
506248.37,9161197.42,-1.9
506246.65,9161202.6,-2.2
506243.62,9161206.75,-4.4
506220.28,9158517.54,9.2
506224.21,9158508.35,8.9
506216.87,9158525.11,8.8
506214.62,9158529.8,8.7
506212.26,9158534.75,8.7
506228.2,9158498.56,8.6
506208.13,9158543.12,8.4
506226.17,9158503.54,8.3
506205.85,9158547.75,8.2
506212.43,9160779.06,1.8
506210.56,9160770.17,1.5
506208.49,9160765.54,1.3
506212.89,9160784.4,1.3
506213.05,9160789.48,1.2
506212.99,9160794.56,1.1
506212.81,9160799.6,0.8
506212.6,9160804.81,0.5
506212.36,9160814.65,0.5
506211.99,9160820.88,0.2
506207.69,9160848.76,0.1
506206.01,9160854.59,0
506209.19,9160842.63,-0.1
506211.68,9160825.91,-0.1
506210.36,9160837.31,-0.2
506211.22,9160831.68,-0.3
506184.23,9158600.72,9.7
506185.74,9158595.95,9.3
506187.34,9158591.11,9.2
506197.72,9158565.05,9.1
506181.45,9158609.7,9.1
506195.53,9158569.78,9.1
506189.81,9158584.03,8.9
506193.49,9158574.44,8.7
506191.57,9158579.28,8.6
506201.48,9158556.99,8.5
506203.59,9158552.43,8.1
506202.7,9161023.56,1.3
506203.19,9161016.35,1.3
506201.93,9161032.95,1.2
506201.38,9161038.22,1.2
506203.51,9161011.19,1.2
506200.9,9161043.69,1
506203.82,9161006.15,0.8
506200.42,9161048.91,0.8
506198.35,9161082.41,0.6
506197.99,9161088.34,0.6
506204.57,9160957.86,0.6
506200.01,9161053.99,0.6
506202.49,9160913.46,0.6
506204.2,9161001.09,0.6
506204.21,9160951.76,0.6
506204.93,9160967.17,0.6
506203.02,9160929.6,0.6
506201.64,9160886.89,0.5
506202.61,9160871.08,0.5
506201.73,9160891.92,0.5
506202.31,9160908.26,0.5
506202.82,9160921.7,0.5
506203.71,9160946.5,0.5
506203.05,9160937.96,0.5
506202.1,9160901.96,0.5
506205.03,9160972.4,0.5
506198.96,9161075.02,0.5
506205.04,9160977.96,0.5
506204.81,9160989.59,0.4
506204.55,9160996.04,0.4
506204.99,9160984.03,0.4
506201.97,9160878.7,0.3
506199.69,9161059.12,0.3
506199.33,9161069.87,0.3
506197.55,9161093.44,0.2
506203.88,9160863.62,0.1
506199.54,9161064.53,0.1
506196.97,9161098.44,-0.3
506196.24,9161104.41,-0.5
506195.89,9161109.43,-0.6
506195.81,9161114.48,-0.9
506198.24,9161150.99,-1
506198.01,9161141.25,-1
506197.05,9161130.35,-1
506196.12,9161120.35,-1
506198.01,9161157.08,-1
506197.61,9161135.45,-1.1
506197.79,9161162.23,-1.2
506197.5,9161167.52,-1.3
506197.01,9161172.51,-1.6
506196.23,9161177.65,-1.8
506195.16,9161183.04,-2.1
506192.3,9161193.4,-2.5
506190.47,9161201.67,-2.5
506193.97,9161187.92,-2.5
506192.75,9161206.22,-2.8
506197.62,9161208.59,-3.4
506172.8,9158638.54,10.5
506155.24,9158685.76,10.5
506175.8,9158629.87,10.1
506157.71,9158677.53,9.8
506161.18,9158667.95,9.5
506163.8,9158660.94,9.4
506177.22,9158624.97,9.4
506159.46,9158672.71,9.3
506169.72,9158646.53,9.2
506165.86,9158655.88,9.1
506178.54,9158619.98,9
506167.78,9158651.21,9
506179.85,9158615.08,8.9
506165.02,9160759.03,1.4
506162.92,9160786.86,1.3
506162.71,9160807.25,1.3
506162.66,9160781.67,1.2
506163.14,9160794.28,1.2
506163.02,9160763.62,1.1
506155.32,9160866.1,0.9
506162.56,9160771.28,0.9
506155.92,9160860.55,0.8
506155.5,9160989.99,0.8
506163.14,9160802.16,0.8
506161.74,9160813.64,0.8
506162.49,9160776.54,0.7
506156.56,9160854.95,0.7
506158.68,9160837.62,0.7
506160.25,9160823.52,0.7
506155.8,9160984.38,0.6
506157.24,9160849.89,0.6
506158.01,9160843.71,0.6
506155.08,9160938.08,0.6
506159.6,9160828.82,0.5
506155.6,9160943.67,0.5
506156.47,9160956.75,0.5
506156.01,9160979.12,0.4
506156.64,9160961.78,0.4
506156.17,9160949.67,0.4
506156.31,9160974.1,0.3
506156.64,9160967.47,0.3
506169.47,9160755.68,-0.4
506155.11,9161122.16,-0.8
506155.19,9161097.53,-0.9
506156.13,9161108.57,-1.1
506155.75,9161116.98,-1.1
506155.67,9161102.6,-1.2
506135.69,9158747.61,11.2
506138.17,9158739.72,11.1
506140.91,9158731.72,11
506151.56,9158700.46,10.8
506152.84,9158695.62,10.2
506154.08,9158690.74,10.1
506134.37,9158752.62,10.1
506149.93,9158706.11,9.6
506142.56,9158726.91,9.5
506148.22,9158710.93,9.4
506145.93,9158717.3,9.2
506133.09,9158757.68,9
506144.24,9158722.13,8.9
506131.18,9158764.97,8.6
506152.42,9160896.16,1.5
506152.97,9160890.51,1.5
506153.51,9160885.28,1.3
506152.13,9160901.29,1.3
506153.88,9161020.7,1.3
506153.96,9160880.05,1.1
506152.31,9160907.32,1.1
506155.05,9160995.49,1
506154.46,9161005.4,0.9
506154.64,9160873.37,0.9
506154.22,9161010.46,0.7
506152.62,9160912.59,0.7
506153.96,9161015.62,0.7
506153.03,9160917.98,0.6
506154.51,9160932.99,0.5
506153.57,9160923.71,0.5
506153.9,9161026.85,0.4
506154.05,9161032.08,0.2
506154.32,9161037.09,0
506154.48,9161055.88,-0.1
506154.53,9161042.68,-0.1
506154.64,9161047.74,-0.1
506154.28,9161062.2,-0.2
506154.16,9161067.52,-0.3
506153.85,9161072.55,-0.3
506153.69,9161077.92,-0.4
506153.8,9161083.72,-0.5
506154.12,9161089.23,-0.5
506154.32,9161127.23,-1
506153.26,9161132.68,-1.4
506149.32,9161156.02,-1.9
506152.39,9161137.64,-1.9
506148.26,9161165.75,-2
506151.56,9161142.75,-2
506150.08,9161150.55,-2.1
506147.77,9161171.29,-2.1
506147.44,9161176.42,-2.4
506146.09,9161192.7,-2.9
506144.77,9161197.63,-3
506146.84,9161186.76,-3.1
506147.13,9161181.45,-3.2
506124.05,9158787.84,11
506126.76,9158779.5,10.8
506107.14,9158831,10.4
506122.15,9158793.92,10.4
506109.34,9158826.44,10.3
506119.41,9158801.9,9.7
506111.42,9158821.78,9.7
506128.37,9158774.76,9.3
506117.58,9158806.68,9.2
506113.39,9158817.09,9.2
506115.64,9158811.55,9
506129.81,9158769.94,8.7
506116.32,9160768.45,2.2
506114.6,9160758.28,1.8
506110.01,9160856.04,1.8
506110.35,9160848.83,1.8
506115.39,9160763.38,1.4
506110.64,9160843.74,1.4
506109.59,9160861.65,1.3
506117.15,9160775.21,1.3
506111.1,9160837.59,1.2
506109.15,9160868.37,1.1
506111.76,9160830.81,1.1
506116.71,9160796.77,1.1
506117.6,9160785.35,1.1
506108.84,9160873.55,1
506106.91,9160983.11,1
506107.17,9160975.48,1
506108.39,9160881.3,1
506106.57,9160988.11,0.9
506106.07,9160993.36,0.9
506107.12,9160970.4,0.9
506105.64,9160998.38,0.8
506117.32,9160791.37,0.8
506108.05,9160887.77,0.8
506107.34,9160912.32,0.8
506117.5,9160780.21,0.8
506112.27,9160825.41,0.8
506107.2,9160917.89,0.8
506106.88,9160936.49,0.8
506106.76,9160941.6,0.8
506106.97,9160930.93,0.7
506107.02,9160925.09,0.7
506107.62,9160899.08,0.7
506107.45,9160906.65,0.7
506107.01,9160964.33,0.7
506107.89,9160893.06,0.7
506106.74,9160952.76,0.7
506115.04,9160808.42,0.7
506114.18,9160813.36,0.7
506106.73,9160947.61,0.6
506115.89,9160803.25,0.6
506106.78,9160958.12,0.6
506112.88,9160820.33,0.6
506113.04,9160753.48,0.2
506087.03,9158878.88,10.9
506085.37,9158883.85,10.4
506094.45,9158859.04,10.4
506088.88,9158873.23,10.1
506092.45,9158863.76,9.9
506104.93,9158835.7,9.9
506098.07,9158850.96,9.8
506090.62,9158868.54,9.6
506102.45,9158841.08,9.6
506100.2,9158846.24,9.5
506083.52,9158888.97,9.3
506081.45,9158893.91,9.1
506104.86,9161005.93,0.9
506102.62,9161037.78,0.7
506102.95,9161031.95,0.7
506104.28,9161011.13,0.5
506103.14,9161026.76,0.4
506103.74,9161016.17,0.4
506103.35,9161021.69,0.3
506102.35,9161042.83,-0.2
506102.21,9161047.86,-0.6
506101.52,9161062.79,-0.8
506102.04,9161052.93,-0.8
506097.93,9161091.21,-1
506100.55,9161070.93,-1
506097.18,9161097.29,-1
506099.89,9161076.22,-1.1
506098.51,9161086.01,-1.1
506096.53,9161102.31,-1.4
506095.98,9161107.34,-1.8
506094.45,9161130.14,-1.9
506092.84,9161141.21,-2
506094.84,9161124.56,-2
506093.91,9161135.72,-2.1
506095.72,9161112.45,-2.1
506095.28,9161119.54,-2.1
506091.5,9161146.74,-2.1
506090.15,9161161.86,-2.2
506090.61,9161152.49,-2.4
506090.08,9161166.93,-2.6
506089.89,9161172.15,-2.7
506089.68,9161179.84,-2.8
506089.26,9161184.86,-2.9
506088.43,9161189.8,-2.9
506087.25,9161194.72,-3
506095.49,9161211.16,-3
506086.38,9161202.04,-3.1
506087.08,9161207,-3.5
506068.19,9158926.86,11.3
506056.65,9158962.72,11.3
506066.28,9158932.27,10.4
506070.11,9158921.99,9.9
506077.26,9158903.53,9.8
506073.83,9158912.41,9.7
506058.28,9158957.88,9.6
506064.65,9158937.46,9.6
506071.98,9158917.3,9.5
506079.3,9158898.77,9.3
506063.11,9158942.23,9
506059.85,9158953.01,8.8
506061.34,9158948,8.4
506062.56,9160810.38,2
506057.69,9160834.65,1.6
506056.24,9160840.08,1.6
506057.51,9160753.51,1.5
