405949.1,9045530.79,9.7
405949.49,9045681.43,9.6
405953.19,9045069.69,9.6
405950.99,9045360.37,9.6
405947.08,9045600.77,9.6
405944.97,9045925.98,9.6
405949.65,9045676.1,9.6
405952.45,9045061.18,9.5
405949.79,9045671.03,9.4
405948.7,9045525.59,9.4
405952.33,9045618.05,9.4
405948.02,9045515.4,9.3
405947.11,9045607.63,9.3
405950.74,9045365.41,9.3
405948.33,9045520.57,9.2
405950.58,9045370.47,9.2
405949.89,9045665.79,9.1
405934.35,9045048.23,9.1
405950.47,9045375.65,9.1
405947.16,9045612.71,9
405949.86,9045660.61,9
405950.47,9045380.77,8.9
405949.62,9045655.57,8.9
405950.86,9045047.68,8.9
405947.26,9045617.78,8.8
405948.03,9045634.22,8.8
405949.27,9045650.5,8.8
405950.61,9045386.09,8.8
405947.47,9045622.93,8.8
405951.84,9045055.97,8.8
405947.71,9045628.2,8.8
405950.39,9045042.64,8.7
405940.66,9045047.65,8.7
405936.93,9045617.2,8.7
405948.85,9045645.2,8.7
405948.42,9045639.78,8.7
405950.92,9045391.17,8.7
405942.18,9045617.57,8.7
405949.99,9045037.52,8.7
405949.42,9045028.8,8.6
405951.32,9045396.18,8.5
405955.43,9045045.32,8.5
405948.92,9045498.84,8.5
405948.12,9045508.02,8.4
405952.8,9045424.62,8.4
405952.63,9045431.94,8.4
405945.74,9045046.87,8.3
405952.45,9045437.03,8.3
405950.97,9045475.79,8.3
405952.21,9045407.95,8.3
405951.72,9045401.39,8.3
405949.51,9045493.58,8.2
405950.49,9045483.6,8.2
405952.66,9045417.76,8.2
405952.36,9045442.06,8.2
405952.18,9045451.1,8.2
405953.34,9044974.68,8.1
405950.06,9045488.6,8.1
405957.41,9044848.89,8
405949.13,9045023.53,8
405948.94,9044998.2,8
405951.98,9045458.42,8
405951.65,9045465.57,7.9
405951.31,9045470.6,7.9
405949.54,9044992.86,7.9
405951.35,9044982.75,7.9
405950.35,9044987.84,7.8
405948.92,9045018.43,7.8
405948.61,9045003.32,7.7
405954.57,9044969.69,7.7
405948.74,9045013.35,7.7
405948.58,9045008.35,7.6
405955.71,9044964.21,7.5
405956.57,9044959.21,7.3
405956.41,9044856.63,7.1
405957.2,9044953.66,7
405944.32,9045930.98,6.8
405956.77,9044880.52,5.7
405956.1,9044861.76,5.4
405956.38,9044873.87,5.1
405956.08,9044866.8,4.8
405957.25,9044885.62,4.1
405944.5,9045935.98,3.9
405946.56,9045940.55,2.2
405950.26,9045943.96,1.2
405912.07,9045267.97,11.9
405912.88,9045261.38,11.9
405911.27,9045272.97,11.9
405910.4,9045277.93,11.6
405913.33,9045256.34,11.5
405911.6,9045346.16,11.4
405909.58,9045282.88,11.3
405916.75,9045346.5,11.1
405908.87,9045287.87,11.1
405913.48,9045251.21,11.1
405921.76,9045346.88,10.9
405908.22,9045293.19,10.9
405907.65,9045103.06,10.8
405913.27,9045244.82,10.8
405907.66,9045298.31,10.8
405931.74,9045347.71,10.6
405911.04,9045224.54,10.6
405912.19,9045234.59,10.5
405910.06,9045216.18,10.5
405909,9045207.63,10.5
405907.6,9045097.98,10.5
405907.51,9045112.89,10.5
405907.49,9045092.89,10.4
405908.42,9045202.1,10.4
405912.81,9045239.74,10.4
405907.64,9045196.06,10.4
405911.6,9045229.54,10.4
405907.87,9045074.74,10.3
405908.03,9045066.36,10.3
405908.03,9045056.22,10.3
405907.62,9045081.94,10.3
405908.47,9045041.98,10.3
405907.47,9045087.78,10.2
405908,9045061.28,10.1
405924.05,9045048.32,10.1
405912.61,9045047.81,10
405917.66,9045048.06,9.7
405908.79,9045036.65,9.7
405929.2,9045048.4,9.5
405909.03,9045031.62,9.5
405909.15,9045026.21,9.1
405925.56,9045616.29,8.9
405931.68,9045616.78,8.9
405919.61,9045615.86,8.8
405914.58,9045615.46,8.8
405909.5,9045614.97,8.7
405909.23,9045020.89,8.7
405909.35,9045015.85,8.2
405909.53,9045010.58,7.9
405911.22,9044980.54,7.8
405910.74,9044987.64,7.7
405909.75,9045005.12,7.7
405911.74,9044975.53,7.6
405910,9044999.81,7.5
405910.4,9044992.8,7.5
405912.41,9044970.57,7.5
405912.73,9044941.04,7.3
405909.86,9044914.25,7.2
405911.67,9044933.47,7.2
405913.25,9044946.04,7.1
405913.02,9044965.48,7
405910.86,9044927.83,7
405913.47,9044960.34,6.7
405910.32,9044922.74,6.7
405909.77,9044909.24,6.6
405913.59,9044951.22,6.6
405909.77,9044904.18,6.1
405909.86,9044899.05,5.6
405909.92,9044894.01,5.4
405909.82,9044877.84,5.2
405910.01,9044888.58,5.1
405910,9044883.52,4.7
405909.36,9044870.52,4.7
405908.52,9044860.47,4.7
405908.1,9044855.44,4.2
405907.59,9044846.44,3.8
405907.54,9044841.44,3.7
405907.69,9044836.35,3
405908.05,9044831.3,2
405908.78,9044826.34,1.4
405911.05,9044821.68,1.2
405897.86,9045836.57,13
405898.35,9045828.61,12.6
405897.57,9045841.63,12.3
405894.74,9045046.87,12.3
405898.81,9045823.6,12.1
405899.77,9045047.23,11.6
405895.58,9045344.7,11.6
405906.03,9045337.52,11.5
405885.94,9045343.92,11.5
405906.2,9045327.65,11.5
405900.7,9045345.2,11.4
405905.89,9045343.11,11.4
405905.78,9045350.1,11.3
405906.32,9045322.14,11.3
405897.23,9045846.88,11.3
405905.78,9045357.31,11.2
405899.45,9045818.53,11.2
405906.51,9045316.13,11.2
405904.09,9045152.93,11.1
405904.8,9045145.61,11.1
405905.89,9045362.45,11
405897.57,9045880.89,11
405903.65,9045158.43,11
405897.55,9045885.93,10.9
405906.12,9045367.87,10.9
405903.39,9045163.44,10.9
405906.73,9045311.01,10.9
405907.16,9045303.89,10.9
405904.79,9045047.52,10.9
405905.54,9045137.74,10.8
405906.36,9045372.96,10.8
405903.48,9045168.57,10.7
405896.96,9045891.55,10.6
405906.1,9045132.69,10.6
405900.18,9045813.56,10.6
405906.66,9045378.17,10.6
405906.81,9045125.92,10.6
405907.3,9045118.29,10.6
405903.86,9045173.79,10.5
405896.95,9045851.91,10.5
405897.33,9045874.41,10.5
405901.8,9045803.33,10.5
405889.74,9045046.37,10.5
405904.59,9045180.23,10.4
405896.93,9045864.15,10.4
405902.7,9045796.69,10.4
405905.63,9045186.07,10.4
405899.97,9045546.68,10.4
405900.19,9045554.85,10.4
405906.79,9045383.4,10.4
405900.95,9045808.6,10.4
405906.69,9045191.02,10.4
405897.11,9045869.26,10.4
405896.82,9045856.98,10.3
405899.82,9045539.32,10.2
405906.86,9045388.67,10.2
405903.21,9045790.81,10.1
405895.7,9045896.74,10.1
405900.24,9045559.88,10
405899.73,9045531.76,10
405906.84,9045393.94,10
405884.77,9045045.81,9.8
405903.35,9045785.7,9.8
405906.62,9045398.96,9.8
405904.11,9045748,9.7
405904.81,9045739.2,9.6
405906.22,9045404.14,9.6
405900.16,9045564.93,9.6
405907.28,9045699.65,9.6
405903.28,9045759.67,9.5
405904.8,9045413.22,9.5
405907.22,9045705.05,9.5
405905.81,9045724.99,9.5
405905.13,9045734.11,9.5
405903.67,9045753.12,9.5
405907,9045710.53,9.5
405905.62,9045675.03,9.5
405894.06,9045901.54,9.5
405903.33,9045780.38,9.5
405906.33,9045719.4,9.5
405903.7,9045419.05,9.5
405907.17,9045693.35,9.5
405906.9,9045688.23,9.4
405906.17,9045680.19,9.4
405903.14,9045764.8,9.3
405899.94,9045570,9.3
405903.23,9045775.27,9.3
405904.67,9045667.01,9.3
405902.81,9045424.17,9.3
405901.53,9045432.35,9.2
405903.16,9045770.06,9.2
405903.67,9045659.3,9.2
405900.32,9045441.64,9.2
405903,9045654.3,9.1
405899.62,9045526.75,9.1
405899.56,9045575.17,9.1
405902.33,9045649.34,9
405892.37,9045906.26,9
405899.62,9045446.88,8.9
405901.14,9045641.16,8.9
405900.46,9045636.18,8.9
405899.04,9045580.28,8.9
405887.21,9045611.7,8.8
405899.58,9045629.88,8.8
405898.91,9045451.9,8.8
405898.88,9045624.84,8.7
405892.2,9045612.55,8.7
405898.47,9045585.6,8.7
405897.99,9045618.7,8.7
405897.9,9045591.34,8.7
405898.36,9045457,8.7
405903.8,9045614.31,8.7
405897.36,9045598.4,8.6
405897.14,9045603.64,8.6
405897.42,9045613.57,8.6
405899.5,9045521.75,8.6
405897.9,9045462.39,8.5
405899.34,9045516.11,8.3
405897.97,9045491.87,8.2
405897.59,9045469.69,8.2
405898.27,9045497.27,8.1
405890.72,9045911.13,8.1
405897.52,9045475.7,8.1
405897.68,9045485.92,8.1
405897.58,9045480.87,8
405899.09,9045510.56,8
405898.59,9045502.3,7.9
405889.45,9045916.21,7.8
405889.18,9045921.21,7
405889.69,9045926.2,5
405891.56,9045930.89,2
405896.31,9045932.73,1
405880.64,9045343.42,11
405862.13,9045115.42,11
405858.09,9045377.17,11
405858.36,9045371.97,10.9
405860.28,9045128.16,10.9
405857.78,9045237.08,10.8
405858.45,9045366.79,10.8
405862.81,9045110.25,10.8
405861.2,9045122.3,10.6
405859.41,9045133.21,10.6
405863.44,9045105.15,10.5
405858.47,9045361.55,10.5
405858.45,9045138.22,10.5
405870.49,9045342.28,10.4
405863.89,9045099.79,10.4
405858.53,9045356.27,10.4
405864.04,9045094.79,10.4
405875.49,9045342.85,10.4
405863.83,9045089.32,10.3
405858.49,9045654.93,10.3
405858.34,9045659.98,10.2
405863.27,9045083.45,10.2
405858.04,9045648.19,10.2
405857.73,9045242.41,10.2
405858.5,9045351.01,10.1
405862.62,9045078.31,10
405858.26,9045346,10
405860.4,9045341.41,9.9
405865.51,9045341.75,9.9
405861.88,9045073.35,9.8
405860.86,9045000.5,9.7
405865.4,9045608.31,9.7
405860.46,9045008.96,9.7
405861.06,9045068.13,9.6
405870.43,9045609.02,9.5
405857.52,9045247.51,9.5
405879.72,9045045.16,9.5
405858.54,9045036.14,9.5
405860.32,9045063.08,9.5
405874.56,9045044.55,9.4
405861.03,9044995.43,9.3
405858.56,9045041.16,9.3
405858.93,9045025.1,9.3
405860.05,9045014.06,9.3
405876.64,9045609.93,9.3
405864.31,9045044.11,9.3
405859.52,9045019.11,9.2
405859.56,9045056.65,9.1
405881.87,9045610.8,9.1
405869.45,9045044.24,9
405858.65,9045030.51,9
405859.06,9045051.61,8.9
405858.7,9045046.48,8.7
405861.47,9044986.74,8.7
405861.93,9044981.76,8.2
405864.02,9044967.63,8
405862.62,9044976.58,8
405864.8,9044962.6,7.5
405861.53,9044921.94,7.3
405861.05,9044916.86,7.2
405862.37,9044928.49,6.9
405860.77,9044911.51,6.9
405863.42,9044880.63,6.9
405860.68,9044906.45,6.6
405863.19,9044933.5,6.6
405860.77,9044901.39,6.5
405865.59,9044953.64,6.5
405861.15,9044896.32,6
405865.36,9044948.52,5.8
405861.92,9044890.81,5.7
405864.01,9044938.49,5.7
405862.73,9044885.68,5.5
405863.83,9044874.72,5.5
405864.79,9044943.46,5.5
405862.99,9044866.52,4.8
405860.83,9044859.27,4.5
405859,9044854.5,4.3
405859.56,9044820.14,0.8
405841.99,9045819.41,12.6
405852.31,9045549.44,12.1
405852.3,9045165.63,11.7
405853.91,9045158.59,11.6
405854.74,9045396.81,11.5
405851.26,9045170.64,11.4
405854.05,9045541.08,11.4
405855.19,9045153.08,11.4
405853.39,9045403.18,11.4
405851.1,9045554.36,11.4
405856.06,9045216.72,11.4
405855.83,9045391.87,11.3
405853.84,9045202.78,11.3
405841.98,9045824.53,11.3
405855.38,9045211.75,11.3
405856.8,9045222.7,11.2
405842.64,9045809.8,11.2
405850.69,9045175.79,11.2
405856.88,9045386.66,11.1
405852.45,9045408.24,11.1
405850.66,9045180.87,11
405852.69,9045196.8,11
405849.83,9045559.28,11
405856.27,9045148.18,11
405857.33,9045227.76,11
405851.07,9045186.61,11
405851.37,9045414.34,10.9
405851.77,9045191.71,10.9
405852.26,9045286.41,10.9
405850.53,9045419.34,10.8
405846,9045579.27,10.8
405853.14,9045276.86,10.8
405846.64,9045574.07,10.8
405837.26,9045607.07,10.8
405848.57,9045564.19,10.7
405852.21,9045291.55,10.6
405849.64,9045424.89,10.6
405854.68,9045268.34,10.6
405857.41,9045143.19,10.6
405848.74,9045430.63,10.6
405845.65,9045584.41,10.5
405845.58,9045589.55,10.5
405847.57,9045440.32,10.5
405852.3,9045296.58,10.5
405851.13,9045620.78,10.4
405847.16,9045445.33,10.4
405855.48,9045678.49,10.4
405842.11,9045829.64,10.3
405849.63,9045615.73,10.3
405842.4,9045606.44,10.3
405857.26,9045668.59,10.3
405853.54,9045688.06,10.3
405856.42,9045673.52,10.3
405852.51,9045301.64,10.3
405853.15,9045627.74,10.3
405846.24,9045599.05,10.3
405852.97,9045307.75,10.3
405857.09,9045642.59,10.2
405852.49,9045694.95,10.2
405843.26,9045804.4,10.2
405855.61,9045263.17,10.1
405854.52,9045632.61,10.1
405848.31,9045610.73,10.1
405855.83,9045637.45,10.1
405835.97,9045341.61,10.1
405846.92,9045604.04,10.1
405852.23,9045341.26,10
405846.96,9045450.47,10
405853.54,9045312.85,10
405851.9,9045700.01,10
405841.72,9045341.52,9.9
405854.3,9045318.01,9.9
405851.28,9045606.51,9.9
405851.53,9045705.41,9.9
405857.07,9045253.07,9.8
405856.4,9045258.22,9.8
405847.02,9045455.61,9.8
405851.49,9045710.44,9.8
405855.46,9045324.9,9.8
405857.31,9045607.22,9.8
405847.07,9045341.35,9.7
405851.96,9045733.15,9.6
405851.69,9045717.76,9.6
405856.47,9045331.34,9.6
405851.84,9045723.11,9.6
405847.27,9045460.8,9.6
405851.81,9045738.39,9.6
405842.42,9045834.64,9.5
405850.78,9045754.97,9.5
405851.96,9045728.12,9.5
405850.21,9045760.16,9.4
405851.3,9045748.74,9.4
405849.37,9045766.71,9.4
405843.88,9045799.41,9.4
405851.59,9045743.62,9.4
405840.4,9045043.45,9.3
405847.69,9045465.87,9.2
405854.82,9045536.1,9.2
405848.2,9045774.19,9.1
405845.47,9045043.65,9
405848.21,9045470.88,9
405847.34,9045779.22,8.9
405848.86,9045476.12,8.9
405849.84,9045482.97,8.9
405842.87,9045839.64,8.8
405833.43,9045043.06,8.8
405850.77,9045488.57,8.8
405854.33,9045043.93,8.8
405844.67,9045794.25,8.7
405846.45,9045784.23,8.7
405851.77,9045493.98,8.6
405845.55,9045789.23,8.5
405852.76,9045498.9,8.4
405843.34,9045844.68,8.4
405855.46,9045520.91,8.2
405855.31,9045531.1,8.2
405853.73,9045503.96,8.2
405855.08,9045514.54,8.1
405855.52,9045526.01,8.1
405854.56,9045509.52,7.8
405843.8,9045849.77,6.6
405845.24,9045868.04,6.1
405845.42,9045873.06,6.1
405844.56,9045857.89,6.1
405844.96,9045862.97,5.7
405845.51,9045878.29,5.7
405845.47,9045883.38,5.5
405845.1,9045896.56,5.3
405844.8,9045903.92,5.1
405844.82,9045909.71,5
405845.27,9045891.04,4.8
405845.65,9045916.82,4
405857.03,9044849.88,3.9
405855.02,9044845.3,3.6
405852.81,9044839.96,3.3
405851.1,9044835.1,2.4
405847.72,9045921.39,2.1
405850.19,9044830.13,1.7
405851.32,9045924.92,1.6
405850.61,9044825.09,1.2
405853.6,9044821.03,0.6
405814.25,9045610.78,11.9
405822.08,9045610.08,11.7
405807.7,9045736.89,11.4
405827.03,9045609.22,11.4
405808.47,9045741.95,11.2
405831.98,9045608.14,11.1
405809.23,9045747.14,10.8
405809.95,9045752.24,10.5
405810.53,9045757.42,10.2
405814.24,9045340.62,10.2
405812.05,9045772.55,10.2
405811,9045762.4,10.1
405819.31,9045341.05,10.1
405812.47,9045778.18,10.1
405811.56,9045767.44,10
405824.44,9045341.36,9.9
405829.93,9045341.57,9.8
405812.64,9045783.42,9.8
405809.51,9045050.34,9.7
405808.52,9045057.18,9.5
405823.32,9045042.17,9.5
405810.2,9045045.14,9.4
405811.72,9045815.23,9.4
405812.64,9045788.54,9.2
405811.01,9045035.44,9.2
405828.36,9045042.66,9.2
405810.81,9045028.11,9.1
405813.13,9045041.02,9
405810.34,9045022.52,9
405811.4,9045823.62,9
405818.19,9045041.63,8.8
405811.9,9045810.15,8.7
405809.71,9045017.55,8.7
405809.07,9045012.57,8.6
405808.56,9045007.37,8.4
405808.23,9045002.38,8.2
405812.53,9045794.9,8.1
405811.26,9045828.65,8.1
405807.64,9044990.07,8
405808.02,9044997.38,7.9
405812.09,9045805.11,7.6
405812.32,9045800.01,7.2
405811.04,9045833.76,6.7
405808.1,9044874.5,5.9
405807.5,9044885.02,5.7
405807.8,9044879.89,5.5
405810.64,9045838.8,5.1
405808.37,9044869.39,5.1
405808.67,9044864.33,4.7
405808.84,9044858.57,4.7
405808.77,9044853.51,4.1
405810.03,9045843.91,3.7
405807.99,9045854.96,3.4
405808.33,9044846.51,3.3
405809.27,9045848.86,3.1
405807.78,9044841.37,2.3
405796.58,9045576.93,13.6
405796.23,9045587.05,13.6
405796.96,9045568.97,13.5
405796.42,9045581.93,13.4
405795.91,9045594.7,13.3
405795.75,9045599.76,13.2
405795.64,9045604.86,12.9
405802.96,9045213.38,12.6
405802.69,9045207.54,12.5
405802.26,9045179.41,12.5
405801.07,9045664.44,12.5
405801.46,9045152.93,12.5
405802.52,9045691.48,12.4
405800.44,9045658.03,12.4
405802.55,9045192.08,12.4
405801.94,9045142.89,12.4
405802.87,9045697.78,12.4
405802.45,9045186.72,12.4
405802.34,9045610.14,12.4
405803.35,9045704.77,12.4
405802.56,9045202.35,12.4
405801.52,9045670.63,12.3
405801.29,9045158.46,12.3
405799.73,9045652.54,12.3
405803.13,9045218.47,12.3
405802.29,9045686.34,12.3
405798.96,9045647.39,12.3
405802.35,9045137.49,12.3
405801.85,9045676.22,12.3
405802.06,9045174.39,12.3
405801.34,9045163.52,12.2
405802.1,9045681.27,12.2
405802.59,9045197.23,12.2
405795.57,9045610.91,12.2
405807.34,9045610.61,12.2
405804.2,9045714.79,12.2
405801.72,9045169.32,12.2
405802.68,9045132.42,12.1
405796.1,9045628.86,12.1
405806.01,9045726.8,12
405798.17,9045642.4,12
405803.19,9045223.55,12
405795.57,9045615.94,12
405795.67,9045622.54,12
405797.25,9045637.07,12
405790.27,9045609.2,12
405804.95,9045720.55,11.9
405785.32,9045608.15,11.9
405802.97,9045127.28,11.8
405806.87,9045731.94,11.8
405803.17,9045228.95,11.7
405803.28,9045122.24,11.7
405797.32,9045563.92,11.6
405803.56,9045117.21,11.5
405803.78,9045111.95,11.5
405803.04,9045234.01,11.4
405804.1,9045097.69,11.4
405803.94,9045105.13,11.3
405804.37,9045092.63,11.2
405802.86,9045239.32,11.1
405804.7,9045087.53,10.9
405791.89,9045315.98,10.9
405791.03,9045308.03,10.8
405793.92,9045327.07,10.8
405805.16,9045082.39,10.8
405795.11,9045333.31,10.7
405792.9,9045321.23,10.7
405789.61,9045337.59,10.7
405791.14,9045302.96,10.6
405800.1,9045338.97,10.6
405802.63,9045244.45,10.5
405794.56,9045338.31,10.5
405797.9,9045558.12,10.5
405791.04,9045342.74,10.5
405797.35,9045343.34,10.5
405805.2,9045339.62,10.4
405805.75,9045077.05,10.4
405800.71,9045444.68,10.4
405798.45,9045348.26,10.4
405800.38,9045356.88,10.3
405801.72,9045362.8,10.2
405802.99,9045368.45,10.2
405791.39,9045297.61,10.2
405805.61,9045383.05,10.1
405806.28,9045389.36,10.1
405806.45,9045072.09,10.1
405804.37,9045375.28,10.1
405801.56,9045439.7,10
405798.91,9045453.73,10
405806.47,9045394.8,10
405802.12,9045249.55,10
405791.81,9045292.54,9.9
405798.04,9045458.74,9.8
405806.4,9045399.96,9.8
405797.2,9045465.03,9.8
405807.16,9045067.08,9.8
405798.47,9045553.13,9.8
405792.49,9045287.49,9.7
405802.34,9045434.68,9.7
405794.08,9045280.37,9.6
405796.77,9045470.11,9.6
405806.15,9045405.07,9.6
405803.29,9045428.57,9.6
405805.8,9045410.12,9.5
405799.43,9045519.05,9.4
405801.29,9045254.54,9.4
405800.01,9045039.36,9.4
405796.63,9045475.11,9.4
405805.26,9045415.16,9.4
405804.21,9045422.6,9.4
405797.21,9045485.41,9.4
405797.97,9045493.47,9.3
405795.89,9045274.2,9.3
405796.79,9045480.37,9.2
405804.98,9045040.01,9.2
405799.01,9045548.14,9.1
405797.4,9045269.43,9
405799.22,9045513.78,9
405800.19,9045259.53,8.9
405798.34,9045498.5,8.9
405799.65,9045527.43,8.9
405798.88,9045264.49,8.8
405799.41,9045543.08,8.7
405799.65,9045532.56,8.7
405798.65,9045503.59,8.7
405798.94,9045508.64,8.6
405799.62,9045537.92,8.5
405804.47,9044939.12,8.5
405804.65,9044944.14,8.2
405804.36,9044933.97,8.1
405804.27,9044928.89,8
405807.2,9044984.49,7.9
405805.52,9044958.92,7.8
405806.77,9044979.39,7.8
405805.06,9044950.5,7.8
405804.3,9044923.8,7.7
405805.74,9044964.15,7.7
405806.35,9044974.32,7.6
405805.99,9044969.27,7.5
405804.54,9044918.69,7.4
405804.89,9044913.68,7.1
405805.37,9044908.7,7
405806.4,9044900.17,6.9
405806.91,9044895.12,6.8
405807.24,9044890.06,6.2
405800.14,9045878.41,5.7
405802.67,9045872.91,5.7
405797.95,9045883.11,5.1
405804.39,9045868.08,4.9
405805.86,9045863.22,4.6
405796.03,9045887.8,4.5
405794.36,9045892.53,4
405793.01,9045897.41,3.3
405792.95,9045902.43,2.5
405800.13,9045908.8,2.4
405795.48,9045906.95,2.2
405807.05,9044836.4,1.3
405760.1,9045175.5,14.1
405760.98,9045170.54,13.8
405757.87,9045187.16,13.8
405758.81,9045182.13,13.5
405761.67,9045165.54,13.3
405762.12,9045160.47,13
405762.53,9045148.48,13
405762.39,9045155.46,12.9
405762.46,9045143.35,12.8
405762.16,9045138.25,12.5
405761.77,9045133.04,12
405780.25,9045606.99,11.8
405761.35,9045127.9,11.8
405773.92,9045605.09,11.7
405760.9,9045122.76,11.7
405760.35,9045117.66,11.7
405759.78,9045112.59,11.5
405758.36,9045102.39,11.5
405759.13,9045107.57,11.5
405768.87,9045604.43,11.4
405757.86,9045771.42,11.3
405763.37,9045332.32,11.2
405768.67,9045333.23,11.1
405775.99,9045334.71,11
405763.83,9045603.41,11
405764.66,9045340.39,11
405775.73,9045341.29,10.9
405780.93,9045335.85,10.9
405781.22,9045341.73,10.8
405758.77,9045602.41,10.8
405770.52,9045340.92,10.8
405765.53,9045040.67,10.7
405760.08,9045040.04,10.6
405775.41,9045045.94,10.4
405770.4,9045042.42,10.3
405757.54,9045566.96,10.1
405757.78,9045561.92,10
405757.74,9045555.27,9.8
405757.5,9045550.21,9.7
405757.9,9045776.43,9.4
405760.2,9044913.91,8
405758.04,9044958.55,7.6
405760.04,9044908.83,7.5
405759.93,9044903.69,7.2
405760.66,9044920.81,7.2
405759.24,9044953.19,7.1
405760.28,9044948.16,7.1
405760.91,9044943.14,6.9
405761.09,9044926.62,6.8
405761.31,9044937.91,6.8
405761.36,9044932.84,6.8
405757.5,9045781.52,6.8
405759.73,9044898.62,6.5
405759.47,9044893.62,6.2
405759.03,9044888.56,5.8
405758.51,9044883.54,5.4
405758.05,9044878.55,5.3
405757.75,9044873.48,4.8
405757.67,9044865.53,4.7
405757.81,9044860.45,4.2
405758.24,9044855.45,3.7
405759.21,9044850.41,2.8
405761.36,9044845.88,1.9
405765.9,9044843.77,1.6
405756.66,9045194.3,13.7
405755.76,9045199.58,13.4
405756.28,9045758.43,12.8
405754.93,9045204.65,12.7
405755.54,9045751.42,12.6
405757.09,9045764.07,12.6
405752.88,9045712.78,12.4
405753.1,9045717.95,12.4
405753.45,9045723.77,12.4
405754.35,9045735.41,12.4
405755.17,9045746.28,12.4
405754.79,9045741.18,12.3
405752.86,9045707.65,12.3
405753.95,9045729.97,12.3
405753.03,9045702.36,12.2
405753.61,9045214.99,12.1
405753.3,9045697.32,12
405754.18,9045209.84,12
405749.41,9045306.78,12
405752.82,9045224.41,11.9
405749.1,9045315.15,11.9
405753.63,9045691.87,11.9
405754.14,9045684.14,11.9
405752.48,9045229.44,11.9
405749.54,9045298.37,11.9
405754.48,9045678.9,11.8
405748.97,9045320.81,11.7
405748.96,9045326.61,11.6
405756.76,9045093.22,11.6
405752.15,9045234.56,11.6
405754.77,9045673.78,11.5
405749.62,9045293.27,11.5
405754.89,9045668.68,11.5
405757.24,9045331.57,11.4
405754.87,9045663.59,11.4
405753.05,9045620.54,11.4
405750.55,9045331.66,11.4
405753.13,9045628.82,11.4
405753.11,9045615.25,11.3
405750.21,9045281.98,11.3
405745.26,9045333.21,11.3
405754.72,9045658.47,11.3
405749.87,9045288.18,11.3
405737.62,9045337.41,11.3
405753.39,9045633.95,11.2
405753.83,9045640.81,11.2
405754.42,9045651.41,11.2
405754.12,9045645.86,11.2
405750.67,9045273.32,11.2
405743.26,9045337.99,11.2
405757.34,9045339.67,11.2
405755.78,9045088.27,11.1
405753.31,9045610.07,11.1
405751.88,9045239.71,11.1
405748.66,9045338.63,11.1
405750.16,9045344.54,11
405750.82,9045349.55,10.9
405751.55,9045246.78,10.9
405754.97,9045083.24,10.9
405751.46,9045354.54,10.8
405753.84,9045072.6,10.8
405754.3,9045077.92,10.8
405753.73,9045605.07,10.8
405750.95,9045266.2,10.8
405753.25,9045063.41,10.8
405751.19,9045257.39,10.7
405752.57,9045027.05,10.7
405752.22,9045359.94,10.7
405751.35,9045252.03,10.7
405752.71,9045034.22,10.6
405737.98,9045598.72,10.6
405753.03,9045058.19,10.6
405743.08,9045599.52,10.5
405748.01,9045600.4,10.5
405753.07,9045365.04,10.5
405752.42,9045022.05,10.5
405754.24,9045599.97,10.5
405754.14,9045370.19,10.4
405752.8,9045042.24,10.4
405752.93,9045053.05,10.4
405752.25,9045017.05,10.3
405755.06,9045375.26,10.3
405757.05,9045572.11,10.3
405752.88,9045047.41,10.2
405754.78,9045594.91,10.2
405742.47,9045040.49,10.2
405756.47,9045577.67,10.2
405752.13,9045011.69,10.2
405749.07,9045458.05,10.1
405748.39,9045438.35,10.1
405755.9,9045582.97,10.1
405755.5,9045380.58,10.1
405748.37,9045443.98,10.1
405749.85,9045464.59,10.1
405755.33,9045385.99,10.1
405748.62,9045433.2,10.1
405755.26,9045589.87,10
405748.51,9045449.76,10
405753.9,9045397.5,10
405747.63,9045040.48,10
405750.51,9045469.78,9.9
405754.83,9045391.02,9.9
405752.05,9045006.46,9.9
405752.66,9045405.09,9.8
405751.11,9045474.82,9.8
405749.03,9045428.03,9.8
405751.78,9045410.27,9.8
405756.39,9045534.24,9.8
405751.85,9045482.26,9.8
405750.39,9045417.9,9.8
405756.86,9045540.15,9.7
405752.08,9045001.23,9.7
405757.19,9045545.21,9.6
405752.35,9045487.42,9.5
405734.61,9045040.01,9.5
405749.61,9045422.96,9.5
405752.27,9044996.19,9.5
405752.62,9044991.1,9.3
405752.79,9045492.46,9.3
405754.27,9045508.59,9.2
405753.24,9045497.47,9.2
405753.76,9045502.79,9.1
405755.94,9045529.14,9.1
405754.75,9045514.01,9.1
405753.17,9044986.01,9.1
405755.23,9045519.79,9
405753.87,9044980.94,8.9
405755.11,9044973.62,8.6
405756.09,9044968.68,8.4
405757.06,9044963.7,8.1
405748.49,9045839.67,6.3
405748.97,9045834.61,6.2
405748.15,9045844.66,5.9
405749.54,9045829.48,5.8
405748.25,9045857.87,5.6
405756.79,9045786.59,5.3
405747.97,9045849.67,5.3
405750.15,9045824.44,4.8
405751.11,9045817.09,4.6
405748.35,9045886.49,4.5
405751.85,9045812.12,4.2
405749.13,9045867.08,4.1
405755.88,9045791.51,4
405747.15,9045880.62,3.8
405754.9,9045796.52,3.5
405748.72,9045874.13,3.4
405753.5,9045803.16,3.2
405707.91,9045154.22,13.3
405708.19,9045135.44,13.1
405708.16,9045148.94,13.1
405708.22,9045143.7,12.9
405708.14,9045125.03,12.6
405708.13,9045119.58,12.5
405708.16,9045130.21,12.4
405708.13,9045114.54,12.2
405708.25,9045109.53,11.9
405708.63,9045099.27,11.9
405708.42,9045104.41,11.9
405712.05,9045335.5,11.6
405709.07,9045090.4,11.5
405720.47,9045336.05,11.5
405726.23,9045336.48,11.4
405731.98,9045336.9,11.3
405710.36,9045063.93,11.2
405709.25,9045085.25,11.2
405709.88,9045070.05,11.1
405709.56,9045075.18,11
405709.37,9045080.19,11
405714.28,9045595.94,10.9
405719.91,9045596.4,10.9
405710.79,9045058.86,10.9
405725.3,9045596.98,10.8
405730.77,9045597.68,10.7
405711.29,9045053.71,10.6
405711.77,9045048.71,10.6
405712.35,9045042.19,10.5
405715.79,9045038.4,10.1
405713.25,9045032.38,10
405729.53,9045039.5,9.8
405713.83,9045027.26,9.7
405720.89,9045038.73,9.7
405714.5,9045021.99,9.6
405715.12,9045016.71,9.3
405715.55,9045011.69,9.2
405715.83,9045004.34,9
405715.75,9044998.93,8.1
405715.45,9044993.88,8
405713.06,9044973.43,7.8
405714.73,9044986.97,7.7
405712.56,9044968.34,7.6
405714.08,9044982,7.6
405712.12,9044962.61,7.5
405711.93,9044944.45,7.2
405711.83,9044957.37,7.2
405711.68,9044952.24,6.9
405712.31,9044939.37,6.8
405712.85,9044931.97,6.8
405713.16,9044926.92,6.6
405713.39,9044921.73,6.5
405713.48,9044914.76,6.3
405713.31,9044909.71,5.9
405712.8,9044904.72,5.8
405711.92,9044899.7,5.7
405710.68,9044894.77,5.2
405709.15,9044889.9,4.4
405707.51,9044885.12,3.6
405706.69,9045185.35,14.7
405706.17,9045191.87,14.6
405706.95,9045180.27,14.6
405705.73,9045196.97,14.6
405705.24,9045203.08,14.4
405707.15,9045174.03,14.4
405704.07,9045731.16,14.1
405704.54,9045717.59,14.1
405707.23,9045168.91,14.1
405704.25,9045725.66,14
405704.92,9045208.17,13.9
405702.74,9045692.75,13.9
405703.87,9045701.35,13.8
405707.38,9045163.88,13.8
405703.38,9045747.07,13.8
405702.94,9045752.49,13.8
405703.8,9045738.42,13.7
405700.12,9045277.93,13.7
405698.82,9045285.25,13.6
405701.01,9045657.96,13.6
405701.39,9045681.89,13.6
405700.9,9045666.44,13.6
405704.72,9045213.25,13.5
405704.56,9045710.51,13.5
405702.45,9045757.56,13.5
405701.03,9045676.89,13.5
405700.9,9045671.54,13.5
405700.86,9045272.95,13.5
405696.63,9045831.73,13.4
405695.72,9045838.63,13.4
405700.98,9045652.9,13.3
405701.06,9045647.14,13.3
405697.58,9045291.7,13.3
405701.45,9045267.62,13.3
405701.96,9045762.61,13.1
405704.64,9045218.44,13.1
405702.52,9045252.69,13.1
405697.26,9045826.76,13
405701.88,9045262.48,13
405701.13,9045629.71,12.9
405696.61,9045296.63,12.8
405704.54,9045223.47,12.8
405702.83,9045246.84,12.8
405701.51,9045767.68,12.8
405698.21,9045818.4,12.8
405703.11,9045241.75,12.7
405695.13,9045844.03,12.7
405700.9,9045774.75,12.7
405700.52,9045779.79,12.6
405700.21,9045786.5,12.6
405704.18,9045229.37,12.6
405695.99,9045301.72,12.6
405700.03,9045792.25,12.5
405701.34,9045638.72,12.5
405698.68,9045813.22,12.5
405699.78,9045797.43,12.5
405695.81,9045307.23,12.5
405699.45,9045803.17,12.4
405703.75,9045234.4,12.4
405700.71,9045624.48,12.4
405699.09,9045808.22,12.4
405695.96,9045312.23,12.3
405696.33,9045318.17,12.2
405697.25,9045326.34,12.1
405700.21,9045619.38,12
405688.82,9045334.5,11.9
405699.68,9045614.39,11.9
405697.91,9045331.63,11.9
405699.21,9045609.25,11.8
405693.88,9045334.75,11.7
405698.93,9045600.03,11.6
405705.84,9045335.21,11.6
405698.51,9045336.8,11.6
405684.28,9045595.65,11.5
405690.71,9045595.55,11.5
405695.81,9045595.52,11.4
405701.49,9045595.52,11.3
405699.14,9045341.94,11.3
405707.38,9045595.64,11.1
405699.86,9045346.9,11
405699.61,9045589.94,10.9
405700.17,9045584.39,10.8
405700.53,9045351.96,10.8
405695.16,9045850.03,10.8
405700.77,9045579.19,10.7
405700.99,9045356.97,10.6
405689.6,9045037.65,10.6
405696.59,9045037.6,10.5
405701.22,9045362.24,10.4
405701.41,9045574.15,10.4
405703.08,9045467.11,10.3
405701.34,9045367.24,10.2
405701.38,9045372.32,10.2
405703.47,9045553.87,10.2
405700.75,9045498.06,10.2
405702.44,9045473.12,10.2
405701.09,9045486.84,10.1
405703.22,9045558.98,10.1
405702.05,9045569.14,10.1
405703.45,9045546.86,10.1
405700.85,9045492.04,10.1
405701.89,9045037.68,10.1
405702.75,9045563.96,10.1
405701.45,9045381.78,10.1
405703.51,9045462.06,10
405700.69,9045504.27,10
405684.59,9045037.68,10
405701.9,9045478.23,10
405702.64,9045533.16,10
405707.12,9045037.89,10
405701.69,9045386.96,9.9
405703.25,9045541.75,9.9
405702.14,9045528.08,9.9
405702.06,9045392.38,9.9
405700.81,9045511.52,9.8
405702.41,9045398.37,9.8
405703.87,9045456.96,9.8
405701.53,9045522.26,9.8
405702.56,9045405.08,9.8
405702.72,9045412.45,9.7
405703.31,9045426.67,9.7
405702.9,9045418.28,9.7
405703.69,9045431.67,9.7
405701.07,9045516.72,9.7
405703.97,9045436.8,9.6
405704.06,9045451.91,9.6
405704.12,9045445.76,9.5
405695.65,9045855.08,9
405697.16,9045865.17,8.1
405696.39,9045860.12,7.9
405698.44,9045874.16,7.6
405698.77,9045879.24,6.3
405698.11,9045884.29,5.4
405705.68,9044879.62,3.3
405695.69,9045888.7,3.3
405703.34,9044866.98,3.1
405704.49,9044874.5,3
405703.06,9044861.91,2
405705.33,9044857.41,1.3
405691.23,9045891.07,1
405661.63,9045333.71,12.6
405659.86,9045595.66,12.4
405677.03,9045334.08,12.3
405666.69,9045333.84,12.3
405671.81,9045333.96,12
405664.96,9045595.87,12
405682.16,9045334.21,11.9
405669.96,9045595.89,11.7
405679.25,9045595.73,11.7
405659.18,9045093.94,11.7
405658.74,9045088.83,11.6
405658.14,9045083.62,11.6
405659.45,9045098.97,11.5
405657.91,9045365.29,11.5
405659.04,9045152.6,11.2
405658.12,9045370.42,11.2
405657.56,9045043.57,11.2
405658.94,9045158.2,11.1
405659.15,9045147.03,11.1
405659.26,9045141.91,10.9
405658.11,9045375.8,10.9
405658.94,9045163.43,10.9
405658.46,9045030.29,10.9
405663.35,9045038.01,10.9
405659.62,9045104,10.8
405657.93,9045380.82,10.8
405674.23,9045037.76,10.8
405659.39,9045136.82,10.7
405659.03,9045168.52,10.7
405657.62,9045385.85,10.7
405658.01,9045191.73,10.7
405659.53,9045131.82,10.6
405661.5,9045004.5,10.6
405659.62,9045125.48,10.6
405668.4,9045037.89,10.5
405659.67,9045120.11,10.5
405659.67,9045109.12,10.5
405659.11,9045173.55,10.5
405657.74,9045427.62,10.5
405658.92,9045025.29,10.4
405659.66,9045114.16,10.4
405658.42,9045186.37,10.4
405660.84,9045009.54,10.4
405658.96,9045178.68,10.3
405662.15,9044999.29,10.3
405659.44,9045020.25,10.3
405679.54,9045037.71,10.3
405660.09,9045014.98,10.2
405658,9045432.7,10.2
405658.12,9045437.82,10.1
405662.45,9044994,10.1
405657.8,9045450.6,10.1
405658.1,9045442.89,10.1
405662.3,9044988.92,9.8
405661.75,9044983.83,9.3
405661.02,9044978.77,9
405659.66,9044970.84,8.8
405658.76,9044965.8,8.4
405657.91,9044960.69,7.7
405658.95,9044926.74,6.5
405657.76,9044935.29,6.3
405659.47,9044921.74,5.9
405661.2,9044906.31,5.8
405661.54,9044901.14,5.3
405659.93,9044916.72,5.2
405660.58,9044911.55,5
405661.55,9044896.04,3.9
405661.38,9044890.99,3.2
405661.26,9044885.93,2.9
405660.89,9044880.75,2.6
405660.44,9044875.65,2.2
405659.73,9044870.66,1.5
405651.31,9045800.56,15.1
405651.31,9045795.51,14.9
405650.79,9045806.93,14.8
405650.95,9045790.48,14.8
405650.3,9045783.39,14.6
405649.42,9045771.24,14.3
405649.27,9045765.76,14.1
405649.55,9045752.54,14.1
405653.55,9045271.68,14.1
405649.72,9045776.45,14.1
405649.7,9045745.5,14.1
405649.31,9045760.64,14.1
405653.09,9045265.72,14.1
405653.99,9045277.28,14
405649.72,9045735.82,13.9
405644.2,9045709.99,13.8
405642.2,9045704.97,13.6
405649.33,9045730.74,13.6
405652.77,9045260.59,13.6
405646.29,9045715.71,13.6
405648.65,9045725.78,13.5
405652.71,9045255.56,13.4
405647.6,9045720.66,13.4
405654.63,9045291.17,13.4
405640.96,9045699.97,13.3
405640.91,9045667.53,13.3
405652.97,9045249.79,13.3
405654.32,9045282.31,13.3
405653.86,9045237.98,13.2
405641.27,9045676.59,13.2
405640.86,9045686.76,13.2
405650.12,9045812.03,13.2
405640.61,9045694.48,13.1
405641.13,9045681.7,13.1
405653.31,9045244.62,13.1
405640.67,9045661.89,13.1
405654.22,9045319.38,13
405649.16,9045818.1,13
405653.97,9045324.65,13
405654.75,9045296.19,12.9
405654.33,9045232.94,12.9
405654.51,9045314.28,12.9
405654.73,9045306.41,12.9
405653.97,9045330.25,12.9
405654.78,9045301.35,12.8
405640.57,9045656.84,12.8
405649.88,9045333.22,12.7
405637.59,9045332.05,12.7
405654.41,9045336.32,12.6
405642.7,9045332.61,12.6
405648.2,9045594.54,12.6
405641.77,9045605.36,12.5
405654.86,9045227.88,12.4
405640.56,9045651.56,12.4
405653.52,9045595.1,12.4
405655.44,9045343.49,12.4
405641.28,9045625.66,12.4
405640.62,9045646.4,12.3
405641.92,9045598.96,12.3
405640.81,9045639.68,12.2
405641.01,9045634.55,12.2
405641.39,9045620.55,12.1
405655.43,9045222.79,12.1
405642.98,9045594.03,12.1
405656.32,9045348.42,12
405641.65,9045610.48,12
405641.51,9045615.52,12
405657.17,9045355.62,11.8
405655.91,9045217.63,11.8
405656.53,9045068,11.8
405642.41,9045038.64,11.7
405656.77,9045056.35,11.7
405656.47,9045062.88,11.5
405656.16,9045212.56,11.5
405633.38,9045037.85,11.5
405657.22,9045049.26,11.4
405657.03,9045074.81,11.4
405656.41,9045207.52,11.3
405642.42,9045587.74,11.2
405656.78,9045202.48,11.1
405650.69,9045038.53,11.1
405648.85,9045543.38,11
405655.89,9045038.28,10.9
405657.35,9045197.3,10.8
405656.62,9045406.35,10.7
405656.92,9045415.46,10.7
405656.81,9045400.63,10.7
405650.14,9045536.94,10.7
405657.3,9045390.87,10.6
405657.23,9045420.55,10.6
405648.02,9045548.37,10.5
405647.25,9045553.37,10.5
405646.13,9045560.67,10.5
405651.34,9045531.98,10.4
405654.01,9045521.66,10.4
405652.65,9045526.86,10.4
405645.28,9045566.27,10.2
405657.22,9045458.75,10.2
405656.87,9045464.08,10.2
405643.07,9045581.99,10.2
405644.52,9045571.42,10.2
405656.69,9045469.2,10.1
405656.9,9045506.79,10.1
405637.89,9045593.65,10.1
405643.81,9045576.42,10.1
405655.23,9045516.75,10
405657.41,9045497.83,10
405656.65,9045474.38,10
405656.19,9045511.77,10
405656.77,9045482.14,9.9
405656.97,9045487.25,9.8
405657.25,9045492.74,9.8
405632.78,9045593.29,9.7
405648.32,9045823.09,8.7
405657.27,9044955.65,7.4
405656.89,9044950.61,7
405656.81,9044945.59,6.7
405657.1,9044940.54,6.4
405645.81,9045839.25,5.5
405643.26,9045857.93,5.4
405644.86,9045847.26,5.3
405647.49,9045828.16,5.3
405641.87,9045865.97,5.3
405641.17,9045871.57,5.3
405646.54,9045834.29,5
405644.18,9045852.31,5
405641.25,9045876.61,3.8
405643.74,9045881.25,0.9
405657.14,9044866.36,0.8
405626.92,9045330.76,13.3
405632.33,9045331.44,13
405616.93,9045329.4,12.3
405612.3,9045096.24,12.1
405611.8,9045090.95,12
405611.4,9045085.86,11.9
405612.69,9045101.49,11.9
405611.14,9045080.74,11.9
405612.96,9045106.54,11.7
405609.74,9045185.7,11.6
405610.88,9045073.62,11.6
405609.42,9045191.64,11.6
405623.03,9045035.89,11.5
405613.18,9045111.55,11.5
405613.39,9045118.07,11.5
405628.31,9045036.98,11.5
405609.96,9045180.54,11.5
405610.32,9045026.77,11.4
405610.81,9045068.52,11.4
405609.02,9045196.7,11.4
405613.56,9045123.15,11.4
405610.72,9045021.78,11.4
405611.31,9045016.78,11.3
405614.58,9045034.41,11.3
405610.1,9045031.82,11.3
405608.51,9045201.76,11.2
405610.86,9045063.39,11.2
405612.11,9045011.81,11.2
405613.56,9045128.26,11.2
405610.32,9045173.77,11.1
405610.8,9045058.31,11
405607.96,9045206.84,11
405610.68,9045052.88,11
405610.1,9045037.05,10.9
405613.35,9045133.45,10.9
405610.35,9045043.77,10.9
405607.62,9045431,10.8
405608.38,9045440.86,10.8
405608.96,9045446.36,10.7
405610.49,9045168.71,10.7
405612.98,9045006.79,10.7
405609.51,9045451.41,10.7
405608.16,9045487.88,10.7
405612.97,9045138.45,10.7
405613.71,9045001.63,10.6
405610,9045456.74,10.6
405610.42,9045465.98,10.6
405610.22,9045471.05,10.5
405609.13,9045481.29,10.5
405610.56,9045163.26,10.5
405611.16,9045154.42,10.5
405609.73,9045476.13,10.4
405612.46,9045143.51,10.4
405614.39,9044994.97,10.4
405611.79,9045148.94,10.4
405614.72,9044989.97,10.3
405612.02,9045591.64,9.9
405617.39,9045592.11,9.7
405622.48,9045592.53,9.6
405627.71,9045592.9,9.6
405614.98,9044984.89,9.4
405615.17,9044979.71,9.2
405615.34,9044972.12,9.1
405615.34,9044967.06,8.9
405615.25,9044962.01,8.2
405615.09,9044956.69,7.6
405614.55,9044935.96,7.5
405614.69,9044929.06,7.3
405614.86,9044951.4,7.2
405614.71,9044946.25,6.9
405614.92,9044921.79,6.8
405614.62,9044940.97,6.6
405615.14,9044916.35,5.6
405615.42,9044911.28,5.1
405615.69,9044906.25,4.5
405616,9044900.88,4.3
405616.19,9044885.07,2.7
405616.57,9044893.22,2.7
405615.57,9044879.99,1.7
405614.99,9044874.97,1.3
405615.15,9044869.64,1.3
405618.58,9044865.91,0.8
405604.12,9045747.34,14.4
405604.01,9045741.82,14.3
405603.7,9045715.27,14.1
405604.29,9045759.93,14
405603.76,9045710.22,13.9
405604.22,9045752.77,13.8
405603.91,9045705.11,13.7
405604.18,9045766.89,13.7
405591.88,9045327.07,13.6
405605.92,9045356.26,13.5
405606.27,9045365.04,13.5
405604.02,9045771.99,13.4
405605.61,9045350.13,13.4
405605.36,9045344.68,13.4
405596.99,9045327.2,13.3
405606.45,9045370.08,13.3
405605.14,9045339.63,13.2
405604.11,9045699.86,13.2
405603.58,9045268.98,13.1
405603.76,9045777.11,13.1
405604.89,9045334.58,13.1
405602.29,9045327.58,13.1
405604.4,9045323.01,13
405606.7,9045375.25,12.9
405604.29,9045318,12.9
405603.15,9045274.09,12.9
405601.84,9045820.88,12.9
405607.41,9045328.11,12.9
405604.2,9045694.58,12.8
405602.08,9045812.85,12.8
405603.39,9045782.18,12.7
405604.08,9045263.56,12.7
405602.84,9045281.31,12.7
405606.92,9045380.32,12.6
405607.08,9045385.37,12.6
405602.2,9045807.7,12.6
405604.94,9045237.27,12.5
405604.15,9045689.46,12.5
405602.86,9045286.32,12.4
405602.96,9045787.37,12.4
405604.82,9045243.14,12.4
405603.72,9045297.34,12.4
405603.2,9045291.35,12.4
405604.17,9045312.93,12.4
405604.42,9045258.44,12.3
405601.58,9045825.91,12.3
405603.97,9045302.5,12.2
405602.63,9045792.43,12.2
405603.94,9045684.44,12.2
405602.35,9045802.56,12.2
405604.07,9045307.91,12.2
405604.76,9045248.16,12.1
405603.57,9045678.16,12.1
405602.48,9045797.53,12.1
405607.1,9045390.5,12.1
405604.65,9045253.4,12
405607.04,9045396.19,11.9
405603.19,9045671.3,11.8
405605.08,9045232.15,11.6
405606.93,9045401.26,11.6
405603.08,9045666.18,11.5
405603.12,9045661.12,11.4
405603.23,9045654.34,11.4
405606.86,9045406.35,11.4
405606.9,9045411.71,11.2
405603.36,9045649,11.1
405605.32,9045227.02,11
405603.64,9045632.99,10.9
405607.11,9045420.5,10.9
405603.52,9045643.68,10.9
405603.65,9045638.39,10.8
405607.3,9045425.75,10.8
405604.39,9045033.89,10.8
405603.82,9045531.01,10.8
405603.46,9045536.09,10.8
405603.47,9045627.91,10.7
405604.12,9045525.36,10.7
405599.34,9045033.98,10.7
405588.62,9045033.78,10.7
405607.32,9045211.86,10.7
405602.98,9045542.18,10.6
405606.84,9045495.57,10.6
405605.8,9045221.97,10.6
405604.34,9045519.28,10.6
405603.22,9045622.74,10.6
405602.66,9045609.98,10.6
405602.51,9045550.44,10.6
405606.56,9045216.87,10.5
405593.87,9045034.02,10.5
405602.93,9045616.79,10.5
405606.02,9045500.58,10.5
405604.73,9045511.32,10.5
405602.22,9045557.17,10.4
405602.51,9045604.88,10.4
405605.22,9045506.22,10.4
405602.03,9045562.29,10.3
405591.64,9045589.3,10.3
405602.32,9045599.04,10.2
405596.71,9045590.07,10.2
405601.88,9045567.39,10.2
405602.17,9045593.8,10.1
405602.02,9045588.66,10
405606.83,9045591.15,10
405601.85,9045572.56,9.9
405601.9,9045582.8,9.9
405601.86,9045577.58,9.8
405601.31,9045831,9.7
405600.99,9045837.88,9.2
405600.78,9045845.37,8.6
405600.83,9045850.48,8.2
405601.19,9045857.53,7.8
405601.5,9045862.57,7.3
405601.87,9045867.92,4.7
405603.52,9045872.71,2.4
405606.67,9045876.61,1.2
405568.12,9045327.79,16.1
405577.19,9045327.61,16
405582.29,9045327.37,15.1
405562.78,9045327.66,15
405558.82,9045339.7,14.6
405559.94,9045349.13,14.5
405558.23,9045334.56,14.3
405560.75,9045354.94,14.3
405561.39,9045359.91,13.9
405557.96,9045329.31,13.6
405562.06,9045365.02,13.4
405562.89,9045370.3,13.4
405563.72,9045376.29,13.2
405559.75,9045194.15,13
405560.53,9045184.36,12.9
405564.22,9045381.55,12.8
405560.53,9045179.36,12.8
405557.93,9045324.16,12.7
405559.04,9045199.3,12.6
405560.27,9045174.36,12.3
405564.5,9045386.65,12.3
405558.53,9045204.29,12.2
405558.05,9045319.06,12.1
405557.77,9045115.14,12
405564.61,9045391.66,11.9
405559.98,9045169.24,11.8
405557.5,9045110.07,11.7
405558.08,9045121.73,11.6
405559.81,9045164.23,11.5
405558.34,9045209.29,11.5
405558.37,9045313.78,11.4
405558.25,9045126.89,11.3
405559.66,9045159.13,11.2
405564.62,9045396.72,11.1
405558.45,9045131.92,11.1
405559.5,9045154.06,11.1
405558.64,9045491.73,11
405581.99,9045033.04,11
405559.31,9045148.98,11
405558.72,9045137.04,11
405560.25,9045486.96,11
405558.79,9045308.66,11
405558.98,9045142.14,10.9
405561.87,9045480.24,10.9
405562.64,9045475.29,10.8
405558.2,9044987.97,10.7
405558.58,9044980.35,10.7
405558.27,9045214.37,10.7
405563.22,9045470.22,10.7
405564.54,9045401.82,10.7
405563.52,9045465.07,10.6
405557.93,9044992.98,10.6
405582.37,9045587.78,10.6
405557.75,9044998.38,10.5
405559.15,9045303.58,10.5
405563.64,9045459.73,10.5
405558.78,9044975.29,10.5
405563.51,9045444.94,10.5
405563.68,9045454.64,10.5
405557.67,9045003.53,10.4
405563.43,9045439.87,10.4
405557.52,9045009.08,10.4
405573.22,9045586.89,10.4
405563.99,9045423.69,10.4
405563.8,9045429.07,10.3
405563.59,9045434.49,10.3
405575.12,9045032.23,10.3
405561.89,9045030.73,10.3
405558.21,9045219.37,10.3
405564.24,9045418.63,10.2
405570.06,9045031.68,10.2
405564.42,9045412.08,10.2
405558.89,9044970.17,10.2
405559.48,9045298.55,10.1
405568.12,9045586.76,10.1
405560.27,9045263.4,10.1
405564.46,9045406.87,10.1
405557.51,9045235.07,10.1
405560.68,9045270.22,10.1
405557.76,9045229.9,10
405559.24,9045254.54,10
405558.1,9045224.54,9.9
405563,9045586.79,9.9
405560.54,9045276.03,9.9
405557.88,9045244.49,9.9
405559.85,9045293.35,9.9
405557.98,9045587,9.8
405560.04,9045287.64,9.8
405558.51,9045249.59,9.7
405560.31,9045281.22,9.6
405558.97,9044965.06,9.5
405559.03,9044959.94,8.4
405559.04,9044954.83,7.4
405558.96,9044949.71,6.7
405558.8,9044944.64,6.1
405558.6,9044939.55,5.7
405558.37,9044934.45,5.1
405558.15,9044929.36,4.8
405557.76,9044922.42,4.7
405557.53,9044917.38,4.5
405555.37,9045748.59,15.2
405554.67,9045754.51,15
405555.82,9045743.56,14.9
405554.03,9045760.01,14.9
405553.51,9045765.11,14.7
405556.28,9045738.54,14.7
405557.19,9045727.08,14.6
405552.87,9045773.3,14.6
405556.73,9045733.23,14.6
405552.59,9045778.38,14.1
405557.38,9045721.64,14.1
405551.97,9045786.6,14
405557.17,9045716.61,13.7
405551.38,9045791.76,13.6
405556.61,9045711.62,13.5
405553.2,9045327.16,13.4
405550.61,9045796.92,13.3
405555.83,9045706.61,13.2
405549.63,9045801.97,13.1
405554.92,9045701.39,12.9
405548.53,9045807.07,12.7
405553.94,9045696.47,12.6
405547.52,9045812.29,12.3
405552.81,9045691.49,12.2
405545.67,9045836.94,12.2
405545.97,9045827.48,12.1
405546.23,9045822.42,12
405546.76,9045817.35,12
405551.58,9045686.58,11.7
405557.04,9045102.26,11.7
405556.35,9045092.24,11.6
405546.52,9045551.69,11.5
405546.84,9045545.6,11.4
405548.46,9045526.04,11.4
405550.47,9045681.67,11.4
405534.7,9045028.24,11.4
405547.14,9045540.46,11.4
405548.95,9045649.32,11.3
405556.08,9045086.49,11.3
405547.49,9045535.43,11.3
405548.62,9045643.06,11.3
405546.21,9045556.93,11.3
405548.95,9045654.49,11.3
405550.23,9045515.68,11.3
405548.85,9045661.25,11.2
405548.06,9045638.09,11.2
405537.39,9045588.71,11.2
405552.32,9045507.9,11.2
405545.76,9045563.38,11.2
405548.92,9045666.26,11.2
405549.64,9045676.3,11.2
405543.79,9045326.57,11.2
405549.16,9045671.28,11.1
405549.21,9045521.04,11.1
405556.59,9045496.66,11.1
405555.96,9045081.35,11.1
405554.51,9045501.68,11.1
405547.16,9045630.67,11.1
405546.34,9045620.65,11
405545.46,9045568.69,11
405555.85,9045076.31,11
405542.63,9045588.32,11
405539.75,9045028.56,10.9
405546.36,9045611.06,10.9
405546.66,9045625.64,10.9
405555.79,9045070.49,10.8
405545.42,9045574.01,10.7
405546.43,9045605.27,10.7
405544.83,9045028.96,10.7
405545.61,9045579.36,10.7
405546.39,9045596.54,10.7
405538.58,9045326.29,10.7
405552.55,9045029.7,10.6
405547.69,9045587.85,10.6
405557.06,9045019.86,10.5
405555.9,9045065.48,10.5
405557.25,9045014.79,10.5
405533.12,9045326.02,10.4
405557.03,9045027.05,10.4
405556.17,9045060.1,10.4
405556.39,9045054.86,10.3
405556.93,9045039.66,10.2
405557.03,9045032.07,10.2
405556.6,9045049.76,10.1
405545.43,9045842.73,10
405556.8,9045044.69,10
405552.83,9045587.38,10
405545.05,9045847.76,8.6
405544.65,9045852.99,7
405557.26,9044901.46,6.2
405557.16,9044892.96,5.3
405544.56,9045861.01,4.9
405557.21,9044907.36,4.6
405557.29,9044912.36,4.2
405556.77,9044887.87,4
405556.37,9044882.87,3.1
405555.96,9044877.81,2.3
405546.08,9045865.87,2
405555.03,9044872.83,1.6
405549.78,9045869.38,1.5
405551.84,9044868.92,1
405510.03,9045121.77,13.6
405509.28,9045137.61,13.5
405510.44,9045116.36,13.5
405508.99,9045146.94,13.5
405509.69,9045127.07,13.4
405509.47,9045132.22,13.3
405511.01,9045106.89,13.2
405508.84,9045151.94,13.2
405508.68,9045160.69,13
405511.16,9045101.71,13
405508.2,9045188.62,12.8
405511.09,9045096.44,12.7
405508.53,9045165.78,12.6
405510.74,9045090.88,12.6
405510.35,9045085.68,12.4
405507.9,9045195.31,12.2
405510.04,9045080.61,12.2
405509.74,9045075.59,12.1
405508.92,9045063.66,12
405509.27,9045068.75,12
405508.32,9045183,11.9
405508.42,9045170.89,11.9
405508.32,9045053.64,11.8
405516.48,9045589.78,11.7
405507.73,9045200.33,11.6
405518.49,9045027.05,11.6
405508.25,9045048.53,11.6
405508.35,9045175.92,11.6
405521.58,9045589.54,11.5
405508.38,9045042.95,11.5
405507.67,9045205.38,11.4
405508.75,9045000.23,11.4
405526.6,9045589.25,11.3
405508.49,9045037.83,11.3
405508.31,9045025.53,11.3
405523.74,9045027.5,11.3
405531.79,9045588.99,11.2
405508.48,9045031.96,11.2
405513.28,9045026.7,11.1
405528.88,9045027.9,11
405508.52,9045006.68,10.9
405508.24,9045017.71,10.7
405509.05,9044994.88,10.7
405514.45,9045323.31,10.7
405508.36,9045011.78,10.6
405509.5,9045322.18,10.6
405520.31,9045324.58,10.6
405527.77,9045325.61,10.4
405509.31,9044989.81,10.1
405509.45,9044984.77,9.8
405509.39,9044974.14,9.7
405509.5,9044979.72,9.6
405508.87,9044966.95,9.6
405508.17,9044912.87,9.5
405508.33,9044961.47,9.4
405507.63,9044954.06,9.2
405508.51,9044907.86,8.5
405508.51,9044902.75,7.8
405508.2,9044897.67,6
405507.67,9044892.67,4.8
405508.72,9044872.54,1.4
405512.49,9044869.18,0.9
405517.33,9044867.9,0.8
405499.12,9045733.2,15
405497.3,9045767.84,14.8
405499.44,9045728.08,14.7
405498.34,9045789.68,14.6
405498.53,9045742.24,14.6
405497.41,9045762.63,14.5
405499.81,9045722.93,14.5
405497.34,9045773.07,14.3
405500.27,9045717.86,14.2
405499.02,9045797.44,14.1
405498.23,9045747.34,14.1
405497.61,9045757.51,14.1
405497.91,9045752.34,14
405497.65,9045779.52,13.9
405500.69,9045712.76,13.8
405497.97,9045784.52,13.6
405501.02,9045707.59,13.6
405500.18,9045386.14,13.5
405498.94,9045392.81,13.5
405501.46,9045379.33,13.4
405501.38,9045702.43,13.4
405499.49,9045802.53,13.3
405498,9045397.83,13.2
405487.33,9045584.92,13.2
405502.9,9045678.29,13.1
405498.24,9045568.22,13
405501.71,9045697.26,13
405497.12,9045403.15,13
405502.44,9045374.32,13
405492.16,9045586.35,13
405502.6,9045685.26,13
405498.01,9045563.01,12.9
405498.71,9045577.78,12.9
405496.63,9045408.17,12.9
405503.11,9045673.18,12.9
405502.14,9045691.82,12.9
405498.98,9045582.89,12.8
405497.81,9045557.73,12.8
405497.62,9045552.35,12.8
405503.47,9045369.34,12.8
405497.02,9045587.61,12.7
405497.47,9045547.03,12.6
405496.48,9045413.28,12.6
405503.41,9045668.17,12.5
405502.11,9045588.67,12.4
405497.36,9045541.97,12.4
405499.89,9045807.74,12.4
405504.58,9045364.33,12.3
405503.68,9045663.09,12.3
405505.46,9045359.18,12.2
405496.74,9045430.86,12.2
405496.55,9045418.4,12.1
405497.29,9045536.51,12.1
405507.37,9045589.47,12.1
405506.02,9045352.33,12.1
405496.7,9045425.31,12.1
405499.6,9045595.32,12.1
405496.72,9045436.28,12.1
405503.86,9045657.92,12.1
405496.73,9045441.6,12
405506.15,9045347.1,12
405497.24,9045531.42,11.9
405497.17,9045526.28,11.9
405499.87,9045600.35,11.9
405496.79,9045447.19,11.9
405504.14,9045652.84,11.8
405500.2,9045605.5,11.8
405496.73,9045452.29,11.8
405505.3,9045225.89,11.8
405496.49,9045457.4,11.7
405496.3,9045470.29,11.7
405497.13,9045521.1,11.6
405504.41,9045647.63,11.6
405500.64,9045610.64,11.6
405496.22,9045465.15,11.5
405496.89,9045507.44,11.5
405505.94,9045342.07,11.5
405496.69,9045499.01,11.5
405497.03,9045512.95,11.5
405496.51,9045482.09,11.5
405496.42,9045475.36,11.4
405504.46,9045642.6,11.4
405504.33,9045637.56,11.3
405482.87,9045026.41,11.3
405496.54,9045487.12,11.3
405496.58,9045492.18,11.3
405501.3,9045615.67,11.3
405504.87,9045231.17,11.2
405500.14,9045812.77,11.2
405503.97,9045632.5,11.1
405505.57,9045336.82,11.1
405507.14,9044936.27,11.1
405489.92,9045026.28,11.1
405502.17,9045620.66,11.1
405503.36,9045246.1,11.1
405503.33,9045627.54,11.1
405506.07,9045220.81,11.1
405500.6,9045026.15,11
405501.09,9045832.52,11
405505.19,9045331.66,10.9
